ncols                271
nrows                32
xllcorner      3456024
yllcorner      5330172.5
cellsize             100
NODATA_value       -9999
782.000    783.000    782.000    776.000    768.000    761.000    763.000    761.000    757.000    758.000    751.000    765.000    774.000    795.000    800.000    799.000    801.000    801.000    798.000    797.000    795.000    789.000    790.000    787.000    772.000    768.000    762.000    759.000    759.000    760.000    758.000    756.000    756.000    751.000    744.000    739.000    733.000    727.000    726.000    726.000    725.000    726.000    722.000    720.000    716.000    714.000    711.000    709.000    708.000    715.000    717.000    708.000    710.000    712.000    703.000    696.000    687.000    682.000    681.000    681.000    703.000    711.000    714.000    715.000    717.000    714.000    714.000    710.000    707.000    695.000    680.000    677.000    676.000    671.000    669.000    662.000    656.000    653.000    654.000    653.000    649.000    646.000    646.000    639.000    638.000    638.000    638.000    639.000    638.000    637.000    623.000    626.000    646.000    689.000    698.000    700.000    704.000    703.000    704.000    704.000    701.000    701.000    712.000    727.000    730.000    728.000    724.000    731.000    726.000    718.000    717.000    697.000    673.000    634.000    607.000    606.000    605.000    611.000    611.000    615.000    637.000    634.000    657.000    664.000    641.000    618.000    632.000    661.000    664.000    668.000    669.000    670.000    671.000    672.000    675.000    679.000    681.000    679.000    676.000    665.000    661.000    660.000    658.000    654.000    650.000    641.000    642.000    645.000    635.000    605.000    597.000    624.000    624.000    619.000    607.000    580.000    612.000    621.000    608.000    590.000    574.000    572.000    581.000    602.000    604.000    631.000    638.000    633.000    610.000    620.000    620.000    611.000    608.000    599.000    596.000    597.000    576.000    575.000    575.000    571.000    569.000    570.000    571.000    572.000    572.000    573.000    576.000    576.000    581.000    589.000    595.000    603.000    606.000    605.000    599.000    594.000    606.000    621.000    658.000    665.000    664.000    681.000    696.000    699.000    698.000    698.000    700.000    703.000    702.000    695.000    681.000    670.000    668.000    667.000    660.000    656.000    655.000    652.000    646.000    626.000    624.000    629.000    641.000    655.000    671.000    671.000    671.000    670.000    673.000    677.000    675.000    674.000    670.000    681.000    688.000    695.000    699.000    693.000    724.000    736.000    755.000    769.000    790.000    785.000    781.000    779.000    781.000    783.000    791.000    793.000    827.000    838.000  -9999.000  -9999.000  -9999.000  -9999.000  -9999.000  -9999.000  -9999.000  -9999.000  -9999.000  -9999.000  -9999.000  -9999.000  -9999.000  -9999.000  -9999.000  -9999.000  -9999.000  -9999.000  -9999.000
780.000    779.000    774.000    772.000    775.000    768.000    760.000    758.000    754.000    750.000    747.000    772.000    788.000    796.000    801.000    803.000    803.000    804.000    799.000    798.000    793.000    794.000    792.000    782.000    771.000    769.000    762.000    758.000    754.000    753.000    751.000    752.000    753.000    749.000    746.000    743.000    737.000    731.000    732.000    728.000    725.000    722.000    721.000    719.000    717.000    715.000    713.000    713.000    711.000    711.000    710.000    704.000    710.000    706.000    699.000    693.000    691.000    684.000    681.000    678.000    689.000    697.000    708.000    713.000    717.000    714.000    713.000    702.000    696.000    685.000    677.000    675.000    677.000    677.000    679.000    666.000    657.000    659.000    663.000    664.000    662.000    662.000    658.000    656.000    653.000    655.000    656.000    652.000    652.000    650.000    625.000    626.000    636.000    680.000    694.000    699.000    704.000    704.000    703.000    701.000    702.000    704.000    718.000    729.000    732.000    735.000    737.000    737.000    731.000    720.000    719.000    710.000    696.000    659.000    639.000    632.000    616.000    629.000    633.000    647.000    658.000    668.000    679.000    672.000    645.000    625.000    614.000    629.000    627.000    638.000    640.000    660.000    671.000    673.000    673.000    671.000    673.000    670.000    674.000    664.000    660.000    659.000    653.000    652.000    648.000    654.000    657.000    641.000    623.000    586.000    602.000    610.000    609.000    593.000    593.000    638.000    647.000    647.000    620.000    613.000    605.000    599.000    582.000    585.000    584.000    588.000    617.000    612.000    603.000    615.000    627.000    625.000    627.000    617.000    613.000    611.000    588.000    579.000    568.000    566.000    570.000    570.000    571.000    573.000    573.000    577.000    575.000    575.000    579.000    587.000    594.000    607.000    606.000    603.000    594.000    586.000    608.000    635.000    646.000    652.000    659.000    675.000    692.000    692.000    691.000    692.000    696.000    699.000    700.000    695.000    681.000    670.000    665.000    666.000    664.000    656.000    654.000    645.000    633.000    620.000    631.000    635.000    659.000    673.000    679.000    675.000    679.000    680.000    680.000    679.000    677.000    676.000    681.000    689.000    690.000    696.000    700.000    700.000    714.000    720.000    747.000    758.000    764.000    751.000    751.000    757.000    760.000    767.000    786.000    793.000    816.000    840.000  -9999.000  -9999.000  -9999.000  -9999.000  -9999.000  -9999.000  -9999.000  -9999.000  -9999.000  -9999.000  -9999.000  -9999.000  -9999.000  -9999.000  -9999.000  -9999.000  -9999.000  -9999.000  -9999.000
789.000    785.000    772.000    765.000    766.000    762.000    757.000    757.000    752.000    750.000    751.000    769.000    777.000    798.000    803.000    808.000    803.000    803.000    806.000    805.000    805.000    799.000    792.000    777.000    771.000    769.000    762.000    759.000    753.000    747.000    747.000    747.000    746.000    745.000    744.000    743.000    737.000    734.000    732.000    728.000    725.000    722.000    721.000    722.000    721.000    717.000    716.000    714.000    711.000    706.000    705.000    707.000    706.000    706.000    705.000    695.000    692.000    685.000    682.000    677.000    679.000    682.000    704.000    709.000    715.000    710.000    709.000    690.000    684.000    683.000    680.000    679.000    683.000    687.000    685.000    660.000    657.000    666.000    671.000    672.000    675.000    673.000    668.000    667.000    666.000    663.000    660.000    658.000    654.000    643.000    622.000    625.000    629.000    654.000    676.000    691.000    705.000    704.000    702.000    702.000    708.000    708.000    715.000    723.000    730.000    735.000    736.000    736.000    731.000    714.000    710.000    708.000    704.000    692.000    671.000    663.000    659.000    669.000    674.000    684.000    682.000    683.000    673.000    668.000    661.000    655.000    635.000    628.000    622.000    613.000    614.000    648.000    666.000    668.000    671.000    666.000    667.000    679.000    678.000    675.000    670.000    667.000    665.000    663.000    661.000    662.000    658.000    626.000    588.000    589.000    621.000    623.000    629.000    632.000    629.000    644.000    647.000    649.000    623.000    614.000    608.000    606.000    596.000    594.000    591.000    582.000    579.000    577.000    584.000    595.000    615.000    624.000    630.000    626.000    625.000    620.000    605.000    592.000    579.000    572.000    571.000    570.000    570.000    572.000    571.000    572.000    575.000    577.000    576.000    579.000    584.000    597.000    600.000    600.000    587.000    586.000    602.000    628.000    636.000    651.000    660.000    668.000    683.000    683.000    685.000    690.000    694.000    696.000    692.000    678.000    676.000    669.000    667.000    669.000    663.000    649.000    644.000    633.000    622.000    620.000    634.000    638.000    660.000    671.000    676.000    683.000    686.000    685.000    685.000    680.000    679.000    682.000    697.000    705.000    703.000    705.000    706.000    730.000    732.000    726.000    741.000    751.000    750.000    736.000    733.000    743.000    760.000    766.000    788.000    804.000    827.000    842.000  -9999.000  -9999.000  -9999.000  -9999.000  -9999.000  -9999.000  -9999.000  -9999.000  -9999.000  -9999.000  -9999.000  -9999.000  -9999.000  -9999.000  -9999.000  -9999.000  -9999.000  -9999.000  -9999.000
787.000    787.000    781.000    763.000    760.000    756.000    755.000    754.000    756.000    762.000    767.000    775.000    777.000    796.000    804.000    813.000    809.000    811.000    809.000    806.000    805.000    800.000    795.000    780.000    772.000    770.000    763.000    760.000    756.000    756.000    754.000    747.000    743.000    740.000    742.000    742.000    737.000    732.000    732.000    731.000    727.000    728.000    726.000    725.000    718.000    716.000    713.000    711.000    709.000    708.000    709.000    709.000    705.000    701.000    697.000    694.000    691.000    686.000    684.000    679.000    674.000    674.000    691.000    700.000    704.000    705.000    703.000    695.000    694.000    691.000    692.000    691.000    694.000    685.000    676.000    668.000    669.000    674.000    676.000    680.000    684.000    683.000    678.000    674.000    670.000    664.000    661.000    654.000    635.000    625.000    622.000    633.000    634.000    634.000    642.000    662.000    668.000    671.000    686.000    706.000    711.000    716.000    709.000    708.000    716.000    725.000    733.000    733.000    722.000    712.000    711.000    708.000    706.000    701.000    688.000    680.000    685.000    687.000    685.000    683.000    680.000    677.000    668.000    667.000    661.000    658.000    645.000    612.000    606.000    602.000    605.000    641.000    667.000    669.000    670.000    669.000    669.000    681.000    677.000    675.000    675.000    674.000    671.000    669.000    663.000    653.000    643.000    611.000    583.000    602.000    635.000    637.000    642.000    639.000    637.000    645.000    648.000    641.000    628.000    620.000    612.000    608.000    602.000    593.000    591.000    584.000    577.000    576.000    581.000    589.000    607.000    616.000    614.000    613.000    612.000    608.000    606.000    602.000    597.000    595.000    572.000    571.000    572.000    573.000    573.000    574.000    574.000    575.000    580.000    579.000    581.000    585.000    586.000    586.000    585.000    590.000    623.000    657.000    651.000    666.000    668.000    671.000    671.000    672.000    681.000    688.000    696.000    691.000    685.000    673.000    672.000    672.000    667.000    666.000    664.000    642.000    635.000    621.000    622.000    631.000    638.000    638.000    647.000    657.000    673.000    681.000    685.000    688.000    684.000    682.000    689.000    691.000    707.000    708.000    704.000    717.000    712.000    732.000    735.000    729.000    737.000    745.000    744.000    726.000    725.000    754.000    772.000    779.000    794.000    811.000    836.000    849.000    852.000  -9999.000  -9999.000  -9999.000  -9999.000  -9999.000  -9999.000  -9999.000  -9999.000  -9999.000  -9999.000  -9999.000  -9999.000  -9999.000  -9999.000  -9999.000  -9999.000  -9999.000  -9999.000
785.000    784.000    784.000    777.000    767.000    757.000    758.000    763.000    773.000    774.000    770.000    776.000    779.000    788.000    796.000    803.000    807.000    809.000    805.000    804.000    801.000    804.000    803.000    796.000    774.000    770.000    764.000    763.000    760.000    753.000    750.000    748.000    746.000    740.000    736.000    735.000    736.000    729.000    725.000    725.000    728.000    729.000    727.000    724.000    721.000    716.000    715.000    715.000    714.000    716.000    714.000    714.000    705.000    704.000    700.000    697.000    695.000    691.000    690.000    685.000    676.000    676.000    675.000    679.000    693.000    707.000    707.000    708.000    709.000    707.000    702.000    699.000    694.000    684.000    681.000    679.000    680.000    686.000    688.000    690.000    689.000    686.000    681.000    671.000    668.000    661.000    652.000    642.000    621.000    618.000    629.000    645.000    649.000    640.000    637.000    642.000    647.000    649.000    658.000    679.000    685.000    699.000    706.000    713.000    711.000    717.000    725.000    727.000    715.000    716.000    714.000    713.000    711.000    697.000    689.000    689.000    688.000    684.000    684.000    677.000    677.000    672.000    666.000    666.000    662.000    656.000    632.000    600.000    612.000    619.000    620.000    657.000    665.000    664.000    666.000    667.000    667.000    679.000    675.000    673.000    674.000    675.000    674.000    670.000    661.000    640.000    629.000    592.000    600.000    619.000    639.000    640.000    639.000    641.000    640.000    645.000    649.000    645.000    634.000    625.000    616.000    613.000    602.000    596.000    591.000    584.000    577.000    575.000    577.000    579.000    587.000    597.000    603.000    609.000    607.000    610.000    609.000    605.000    596.000    588.000    579.000    572.000    571.000    571.000    574.000    572.000    576.000    576.000    577.000    580.000    579.000    583.000    584.000    582.000    587.000    594.000    620.000    653.000    659.000    663.000    663.000    643.000    648.000    658.000    663.000    660.000    663.000    664.000    662.000    659.000    658.000    658.000    659.000    658.000    652.000    635.000    622.000    622.000    632.000    641.000    644.000    642.000    645.000    652.000    667.000    674.000    680.000    687.000    685.000    686.000    703.000    701.000    702.000    696.000    698.000    708.000    708.000    727.000    727.000    726.000    729.000    729.000    733.000    732.000    742.000    757.000    768.000    780.000    797.000    807.000    831.000    855.000    857.000  -9999.000  -9999.000  -9999.000  -9999.000  -9999.000  -9999.000  -9999.000  -9999.000  -9999.000  -9999.000  -9999.000  -9999.000  -9999.000  -9999.000  -9999.000  -9999.000  -9999.000  -9999.000
775.000    788.000    791.000    781.000    780.000    767.000    763.000    763.000    763.000    761.000    761.000    761.000    771.000    781.000    786.000    798.000    809.000    810.000    803.000    804.000    804.000    804.000    803.000    799.000    773.000    766.000    764.000    762.000    759.000    753.000    749.000    745.000    741.000    737.000    733.000    733.000    732.000    729.000    726.000    720.000    719.000    719.000    722.000    725.000    726.000    726.000    724.000    723.000    724.000    726.000    722.000    720.000    710.000    706.000    699.000    693.000    696.000    688.000    687.000    683.000    676.000    680.000    674.000    673.000    678.000    694.000    702.000    712.000    710.000    709.000    706.000    702.000    695.000    688.000    687.000    688.000    690.000    693.000    694.000    695.000    687.000    675.000    670.000    659.000    655.000    648.000    640.000    632.000    620.000    625.000    641.000    658.000    659.000    655.000    652.000    653.000    664.000    670.000    656.000    661.000    664.000    672.000    679.000    710.000    716.000    715.000    718.000    717.000    716.000    721.000    721.000    720.000    719.000    701.000    695.000    692.000    688.000    687.000    684.000    674.000    674.000    675.000    669.000    666.000    658.000    655.000    625.000    597.000    615.000    636.000    636.000    637.000    642.000    645.000    654.000    663.000    668.000    674.000    672.000    672.000    669.000    665.000    669.000    667.000    652.000    620.000    604.000    579.000    615.000    628.000    642.000    645.000    642.000    638.000    634.000    646.000    649.000    653.000    635.000    622.000    618.000    613.000    601.000    598.000    594.000    582.000    579.000    580.000    579.000    581.000    580.000    580.000    584.000    591.000    597.000    604.000    605.000    601.000    600.000    595.000    586.000    574.000    575.000    573.000    572.000    574.000    574.000    575.000    575.000    580.000    578.000    578.000    578.000    584.000    590.000    595.000    605.000    622.000    625.000    642.000    648.000    621.000    631.000    644.000    644.000    643.000    636.000    636.000    637.000    639.000    640.000    640.000    639.000    638.000    631.000    621.000    616.000    630.000    641.000    647.000    649.000    647.000    648.000    661.000    674.000    680.000    686.000    688.000    689.000    689.000    684.000    687.000    684.000    689.000    691.000    699.000    705.000    718.000    714.000    711.000    722.000    724.000    733.000    739.000    744.000    767.000    783.000    792.000    810.000    823.000    835.000    853.000    861.000  -9999.000  -9999.000  -9999.000  -9999.000  -9999.000  -9999.000    851.000    851.000    855.000  -9999.000  -9999.000  -9999.000  -9999.000  -9999.000  -9999.000  -9999.000  -9999.000  -9999.000
779.000    792.000    790.000    786.000    784.000    771.000    756.000    753.000    751.000    752.000    751.000    754.000    760.000    770.000    776.000    791.000    802.000    805.000    802.000    802.000    801.000    798.000    797.000    795.000    784.000    771.000    762.000    762.000    756.000    751.000    750.000    745.000    739.000    735.000    732.000    732.000    729.000    727.000    726.000    719.000    718.000    713.000    715.000    718.000    724.000    725.000    725.000    730.000    729.000    730.000    720.000    716.000    707.000    703.000    697.000    693.000    691.000    690.000    689.000    687.000    685.000    683.000    679.000    676.000    668.000    670.000    678.000    697.000    699.000    701.000    708.000    705.000    698.000    700.000    700.000    700.000    700.000    701.000    696.000    692.000    676.000    668.000    662.000    654.000    648.000    640.000    629.000    624.000    623.000    630.000    650.000    666.000    669.000    675.000    678.000    682.000    680.000    686.000    676.000    665.000    663.000    659.000    663.000    689.000    704.000    715.000    716.000    716.000    719.000    723.000    725.000    725.000    724.000    716.000    705.000    700.000    690.000    684.000    680.000    679.000    680.000    680.000    669.000    663.000    657.000    656.000    644.000    606.000    600.000    602.000    604.000    606.000    600.000    605.000    635.000    661.000    666.000    670.000    666.000    665.000    668.000    672.000    667.000    662.000    641.000    596.000    580.000    586.000    622.000    630.000    635.000    644.000    651.000    649.000    651.000    650.000    646.000    653.000    640.000    627.000    613.000    613.000    606.000    596.000    592.000    585.000    581.000    581.000    583.000    587.000    583.000    582.000    582.000    582.000    583.000    594.000    597.000    599.000    605.000    599.000    592.000    578.000    576.000    574.000    574.000    574.000    573.000    573.000    575.000    576.000    574.000    578.000    578.000    585.000    588.000    592.000    600.000    604.000    604.000    609.000    612.000    608.000    606.000    614.000    614.000    615.000    609.000    608.000    610.000    616.000    615.000    611.000    607.000    611.000    613.000    613.000    624.000    640.000    642.000    653.000    651.000    652.000    660.000    667.000    678.000    675.000    676.000    684.000    687.000    689.000    682.000    681.000    683.000    689.000    688.000    702.000    707.000    701.000    703.000    709.000    725.000    738.000    749.000    755.000    764.000    780.000    811.000    831.000    859.000    864.000    872.000    871.000    870.000  -9999.000  -9999.000    863.000    856.000    849.000    848.000    847.000    849.000    853.000    855.000    862.000    880.000    886.000    907.000    924.000    946.000  -9999.000  -9999.000
796.000    795.000    791.000    785.000    780.000    761.000    750.000    748.000    746.000    746.000    746.000    753.000    760.000    765.000    777.000    785.000    790.000    797.000    796.000    792.000    794.000    796.000    794.000    795.000    789.000    774.000    761.000    760.000    753.000    747.000    746.000    741.000    738.000    734.000    732.000    729.000    724.000    723.000    722.000    721.000    719.000    711.000    710.000    710.000    713.000    715.000    721.000    724.000    725.000    726.000    720.000    718.000    719.000    720.000    712.000    714.000    716.000    705.000    693.000    687.000    685.000    684.000    679.000    676.000    672.000    666.000    666.000    671.000    674.000    677.000    679.000    684.000    693.000    701.000    701.000    699.000    698.000    692.000    693.000    687.000    677.000    666.000    663.000    656.000    652.000    641.000    625.000    625.000    637.000    644.000    652.000    670.000    682.000    691.000    692.000    691.000    687.000    690.000    692.000    684.000    678.000    664.000    657.000    673.000    692.000    705.000    715.000    719.000    721.000    723.000    724.000    724.000    723.000    717.000    707.000    699.000    692.000    690.000    687.000    684.000    682.000    676.000    667.000    662.000    659.000    658.000    653.000    641.000    632.000    623.000    617.000    615.000    602.000    598.000    605.000    657.000    663.000    669.000    671.000    665.000    648.000    651.000    661.000    652.000    625.000    584.000    583.000    605.000    630.000    637.000    644.000    652.000    657.000    658.000    658.000    654.000    651.000    649.000    647.000    640.000    619.000    611.000    603.000    598.000    596.000    583.000    578.000    577.000    584.000    585.000    586.000    582.000    581.000    584.000    585.000    590.000    587.000    592.000    609.000    610.000    600.000    596.000    589.000    604.000    585.000    577.000    574.000    577.000    575.000    576.000    575.000    579.000    579.000    582.000    585.000    588.000    592.000    594.000    594.000    594.000    595.000    595.000    595.000    597.000    596.000    597.000    593.000    595.000    594.000    595.000    596.000    607.000    622.000    628.000    628.000    638.000    643.000    644.000    647.000    654.000    655.000    657.000    662.000    665.000    663.000    663.000    662.000    672.000    675.000    676.000    679.000    681.000    680.000    683.000    684.000    692.000    697.000    707.000    702.000    701.000    717.000    728.000    737.000    759.000    764.000    785.000    811.000    832.000    867.000    872.000    875.000    873.000    874.000  -9999.000    870.000    867.000    848.000    835.000    829.000    838.000    833.000    824.000    827.000    849.000    872.000    877.000    898.000    908.000    941.000    983.000    991.000
801.000    796.000    788.000    784.000    779.000    759.000    751.000    750.000    745.000    743.000    741.000    752.000    752.000    758.000    778.000    782.000    787.000    792.000    797.000    794.000    795.000    798.000    799.000    794.000    794.000    788.000    765.000    759.000    752.000    748.000    746.000    741.000    738.000    736.000    731.000    728.000    726.000    721.000    719.000    717.000    715.000    709.000    706.000    705.000    706.000    708.000    712.000    715.000    718.000    720.000    720.000    720.000    728.000    734.000    724.000    720.000    721.000    702.000    696.000    688.000    685.000    684.000    680.000    677.000    675.000    668.000    665.000    662.000    660.000    659.000    662.000    668.000    677.000    681.000    681.000    683.000    681.000    683.000    682.000    680.000    671.000    666.000    661.000    655.000    647.000    628.000    626.000    637.000    665.000    665.000    658.000    676.000    690.000    694.000    693.000    695.000    692.000    692.000    697.000    694.000    697.000    685.000    667.000    668.000    695.000    711.000    717.000    722.000    723.000    721.000    721.000    721.000    718.000    713.000    705.000    703.000    698.000    692.000    687.000    680.000    679.000    676.000    669.000    665.000    658.000    657.000    651.000    648.000    645.000    636.000    628.000    624.000    611.000    602.000    605.000    653.000    662.000    665.000    667.000    660.000    648.000    637.000    634.000    632.000    598.000    583.000    592.000    634.000    641.000    644.000    656.000    659.000    665.000    662.000    660.000    657.000    655.000    650.000    651.000    643.000    618.000    609.000    604.000    600.000    595.000    581.000    578.000    582.000    586.000    585.000    586.000    583.000    584.000    588.000    590.000    587.000    586.000    587.000    603.000    603.000    603.000    594.000    584.000    618.000    622.000    605.000    576.000    576.000    576.000    577.000    579.000    578.000    576.000    579.000    581.000    583.000    588.000    588.000    588.000    586.000    586.000    588.000    589.000    587.000    587.000    588.000    588.000    595.000    602.000    602.000    616.000    635.000    648.000    647.000    652.000    657.000    656.000    653.000    654.000    654.000    655.000    656.000    658.000    659.000    655.000    666.000    670.000    675.000    676.000    685.000    686.000    683.000    683.000    689.000    685.000    684.000    692.000    701.000    704.000    707.000    713.000    710.000    725.000    757.000    763.000    787.000    817.000    833.000    870.000    874.000    877.000    877.000    876.000    871.000    870.000    862.000    834.000    820.000    812.000    825.000    818.000    802.000    811.000    833.000    855.000    868.000    885.000    895.000    919.000    947.000    967.000
800.000    789.000    785.000    780.000    774.000    763.000    748.000    748.000    745.000    744.000    746.000    744.000    742.000    751.000    765.000    770.000    774.000    782.000    792.000    793.000    793.000    797.000    798.000    793.000    793.000    791.000    776.000    762.000    757.000    751.000    749.000    745.000    744.000    743.000    737.000    733.000    729.000    723.000    720.000    715.000    714.000    708.000    707.000    707.000    704.000    704.000    708.000    709.000    711.000    714.000    717.000    718.000    724.000    723.000    721.000    708.000    704.000    694.000    688.000    683.000    680.000    679.000    676.000    674.000    674.000    669.000    666.000    663.000    657.000    655.000    651.000    652.000    655.000    656.000    657.000    652.000    651.000    651.000    655.000    656.000    651.000    647.000    644.000    641.000    637.000    625.000    629.000    646.000    671.000    674.000    668.000    686.000    695.000    699.000    700.000    697.000    697.000    697.000    700.000    698.000    699.000    679.000    670.000    671.000    701.000    711.000    717.000    723.000    727.000    724.000    721.000    720.000    719.000    713.000    708.000    704.000    695.000    688.000    683.000    678.000    675.000    671.000    666.000    662.000    657.000    658.000    658.000    649.000    644.000    635.000    630.000    625.000    606.000    610.000    649.000    655.000    660.000    663.000    664.000    655.000    645.000    637.000    616.000    606.000    582.000    600.000    615.000    651.000    655.000    656.000    662.000    664.000    671.000    669.000    662.000    658.000    656.000    648.000    644.000    633.000    617.000    608.000    604.000    598.000    594.000    582.000    583.000    588.000    590.000    590.000    588.000    584.000    590.000    589.000    588.000    587.000    587.000    585.000    589.000    596.000    596.000    589.000    588.000    619.000    629.000    627.000    595.000    581.000    576.000    575.000    576.000    576.000    578.000    579.000    578.000    579.000    581.000    583.000    581.000    583.000    585.000    591.000    593.000    592.000    603.000    608.000    621.000    636.000    638.000    634.000    642.000    653.000    661.000    661.000    660.000    661.000    659.000    659.000    657.000    655.000    655.000    654.000    654.000    655.000    651.000    669.000    676.000    682.000    687.000    689.000    686.000    683.000    679.000    683.000    683.000    680.000    689.000    698.000    700.000    705.000    712.000    722.000    739.000    757.000    769.000    781.000    827.000    852.000    875.000    877.000    878.000    876.000    873.000    868.000    866.000    850.000    821.000    809.000    798.000    801.000    795.000    787.000    790.000    807.000    826.000    843.000    869.000    884.000    903.000    927.000    950.000
790.000    788.000    785.000    780.000    775.000    764.000    749.000    749.000    746.000    746.000    744.000    744.000    743.000    750.000    758.000    760.000    774.000    780.000    785.000    788.000    791.000    797.000    795.000    792.000    790.000    787.000    784.000    775.000    761.000    752.000    751.000    751.000    745.000    743.000    734.000    730.000    730.000    724.000    721.000    715.000    712.000    709.000    710.000    708.000    704.000    702.000    703.000    707.000    708.000    711.000    711.000    713.000    718.000    719.000    709.000    698.000    693.000    687.000    684.000    680.000    680.000    680.000    677.000    673.000    671.000    671.000    670.000    669.000    664.000    661.000    653.000    650.000    651.000    645.000    644.000    644.000    640.000    638.000    639.000    637.000    634.000    633.000    632.000    631.000    629.000    626.000    628.000    646.000    677.000    683.000    676.000    688.000    695.000    700.000    701.000    702.000    702.000    701.000    701.000    701.000    705.000    685.000    675.000    671.000    710.000    713.000    716.000    718.000    723.000    724.000    723.000    718.000    717.000    717.000    709.000    700.000    694.000    688.000    690.000    680.000    674.000    667.000    662.000    659.000    664.000    664.000    668.000    650.000    644.000    631.000    623.000    617.000    613.000    639.000    653.000    648.000    651.000    655.000    653.000    647.000    635.000    628.000    602.000    583.000    587.000    621.000    644.000    663.000    668.000    666.000    669.000    675.000    674.000    666.000    659.000    656.000    650.000    637.000    622.000    616.000    612.000    607.000    602.000    597.000    592.000    582.000    586.000    589.000    590.000    592.000    588.000    589.000    594.000    593.000    589.000    583.000    587.000    587.000    591.000    593.000    589.000    597.000    599.000    612.000    623.000    624.000    627.000    615.000    585.000    578.000    577.000    575.000    577.000    578.000    578.000    578.000    579.000    581.000    582.000    591.000    598.000    622.000    630.000    627.000    639.000    639.000    640.000    649.000    647.000    659.000    669.000    667.000    671.000    666.000    662.000    659.000    659.000    656.000    657.000    653.000    653.000    655.000    650.000    650.000    650.000    660.000    665.000    671.000    680.000    678.000    677.000    676.000    675.000    683.000    682.000    690.000    692.000    696.000    713.000    719.000    728.000    742.000    754.000    751.000    761.000    782.000    812.000    837.000    874.000    878.000    873.000    871.000    865.000    860.000    855.000    837.000    817.000    802.000    781.000    778.000    776.000    779.000    779.000    787.000    810.000    818.000    845.000    861.000    893.000    925.000    940.000
783.000    781.000    779.000    775.000    773.000    759.000    746.000    745.000    745.000    745.000    740.000    741.000    742.000    743.000    756.000    756.000    766.000    773.000    780.000    783.000    788.000    792.000    793.000    791.000    786.000    784.000    782.000    772.000    760.000    756.000    752.000    749.000    741.000    738.000    734.000    732.000    733.000    724.000    718.000    714.000    713.000    708.000    709.000    708.000    704.000    701.000    701.000    705.000    707.000    712.000    714.000    713.000    714.000    716.000    710.000    698.000    693.000    688.000    686.000    685.000    681.000    680.000    677.000    675.000    673.000    677.000    677.000    670.000    670.000    666.000    656.000    657.000    653.000    647.000    647.000    649.000    646.000    643.000    644.000    642.000    635.000    637.000    635.000    636.000    639.000    627.000    639.000    656.000    680.000    688.000    683.000    691.000    697.000    700.000    702.000    704.000    704.000    703.000    704.000    708.000    713.000    704.000    694.000    669.000    704.000    711.000    717.000    719.000    720.000    719.000    718.000    714.000    713.000    709.000    704.000    707.000    708.000    692.000    681.000    676.000    681.000    683.000    676.000    673.000    671.000    669.000    669.000    673.000    645.000    625.000    604.000    602.000    636.000    655.000    655.000    645.000    643.000    643.000    644.000    636.000    620.000    613.000    588.000    587.000    600.000    646.000    653.000    659.000    667.000    670.000    671.000    670.000    664.000    659.000    657.000    649.000    636.000    617.000    612.000    611.000    605.000    605.000    599.000    591.000    589.000    583.000    585.000    587.000    589.000    589.000    589.000    593.000    594.000    590.000    587.000    582.000    584.000    589.000    592.000    590.000    590.000    597.000    602.000    616.000    617.000    624.000    630.000    617.000    595.000    582.000    582.000    577.000    576.000    577.000    578.000    579.000    579.000    583.000    588.000    613.000    628.000    649.000    658.000    655.000    648.000    650.000    654.000    658.000    667.000    674.000    672.000    672.000    670.000    669.000    667.000    658.000    652.000    653.000    653.000    650.000    652.000    652.000    648.000    646.000    650.000    649.000    652.000    655.000    664.000    664.000    659.000    667.000    681.000    692.000    692.000    696.000    693.000    700.000    719.000    725.000    744.000    750.000    749.000    742.000    750.000    774.000    795.000    818.000    863.000    867.000    856.000    850.000    847.000    850.000    849.000    820.000    807.000    796.000    770.000    764.000    769.000    787.000    788.000    788.000    802.000    811.000    829.000    847.000    888.000    919.000    933.000
785.000    782.000    782.000    768.000    769.000    760.000    749.000    746.000    740.000    738.000    738.000    735.000    737.000    740.000    750.000    755.000    758.000    763.000    773.000    782.000    783.000    781.000    784.000    783.000    781.000    779.000    778.000    772.000    760.000    756.000    752.000    747.000    740.000    739.000    738.000    736.000    734.000    727.000    723.000    714.000    711.000    707.000    706.000    706.000    700.000    700.000    701.000    715.000    715.000    721.000    726.000    726.000    716.000    714.000    716.000    708.000    705.000    699.000    696.000    689.000    684.000    682.000    683.000    682.000    683.000    679.000    675.000    670.000    669.000    667.000    665.000    663.000    653.000    655.000    657.000    656.000    658.000    660.000    656.000    648.000    647.000    649.000    650.000    649.000    640.000    624.000    643.000    655.000    679.000    690.000    692.000    695.000    698.000    701.000    705.000    706.000    705.000    707.000    707.000    709.000    716.000    709.000    697.000    674.000    702.000    713.000    720.000    724.000    724.000    717.000    713.000    709.000    705.000    702.000    695.000    695.000    692.000    681.000    682.000    691.000    691.000    688.000    677.000    678.000    677.000    676.000    677.000    676.000    674.000    615.000    597.000    611.000    626.000    631.000    626.000    618.000    614.000    605.000    598.000    587.000    588.000    585.000    586.000    603.000    626.000    656.000    655.000    660.000    663.000    665.000    663.000    659.000    652.000    648.000    645.000    626.000    620.000    610.000    607.000    605.000    604.000    602.000    596.000    587.000    585.000    586.000    589.000    589.000    590.000    589.000    595.000    594.000    593.000    592.000    587.000    580.000    587.000    590.000    594.000    602.000    606.000    607.000    609.000    623.000    625.000    631.000    620.000    601.000    588.000    591.000    599.000    591.000    582.000    581.000    580.000    580.000    578.000    581.000    586.000    602.000    613.000    649.000    669.000    671.000    663.000    670.000    665.000    668.000    672.000    672.000    669.000    672.000    668.000    668.000    666.000    658.000    654.000    652.000    651.000    650.000    652.000    650.000    646.000    646.000    654.000    660.000    659.000    659.000    661.000    666.000    667.000    671.000    688.000    693.000    695.000    697.000    699.000    724.000    730.000    729.000    743.000    742.000    739.000    734.000    739.000    762.000    790.000    812.000    833.000    839.000    827.000    822.000    822.000    836.000    833.000    797.000    778.000    774.000    753.000    767.000    785.000    812.000    821.000    822.000    817.000    820.000    839.000    852.000    879.000    911.000    925.000
783.000    776.000    777.000    761.000    750.000    746.000    743.000    742.000    740.000    738.000    738.000    735.000    735.000    739.000    744.000    748.000    755.000    755.000    758.000    773.000    778.000    779.000    781.000    781.000    778.000    777.000    774.000    771.000    763.000    757.000    752.000    749.000    745.000    743.000    739.000    737.000    732.000    726.000    722.000    715.000    712.000    708.000    705.000    704.000    702.000    704.000    704.000    715.000    717.000    727.000    726.000    725.000    719.000    716.000    714.000    711.000    711.000    723.000    723.000    711.000    706.000    707.000    701.000    691.000    689.000    679.000    673.000    672.000    671.000    671.000    661.000    655.000    658.000    662.000    665.000    666.000    670.000    670.000    664.000    658.000    658.000    659.000    660.000    650.000    638.000    629.000    646.000    657.000    680.000    695.000    695.000    698.000    697.000    702.000    705.000    705.000    707.000    710.000    715.000    720.000    721.000    695.000    682.000    682.000    706.000    714.000    724.000    725.000    724.000    717.000    712.000    701.000    702.000    702.000    693.000    689.000    686.000    694.000    697.000    696.000    693.000    691.000    681.000    679.000    681.000    680.000    683.000    679.000    675.000    642.000    607.000    607.000    605.000    607.000    604.000    602.000    597.000    587.000    589.000    603.000    616.000    626.000    620.000    650.000    657.000    665.000    664.000    656.000    652.000    648.000    638.000    636.000    625.000    613.000    612.000    611.000    608.000    607.000    602.000    602.000    601.000    596.000    590.000    585.000    587.000    591.000    595.000    592.000    590.000    595.000    595.000    595.000    594.000    596.000    596.000    591.000    582.000    586.000    602.000    616.000    618.000    613.000    617.000    623.000    621.000    624.000    605.000    597.000    598.000    619.000    614.000    592.000    596.000    601.000    587.000    581.000    578.000    582.000    582.000    596.000    603.000    647.000    666.000    665.000    662.000    665.000    662.000    669.000    668.000    670.000    671.000    668.000    666.000    666.000    663.000    659.000    656.000    651.000    648.000    645.000    648.000    644.000    646.000    660.000    670.000    677.000    679.000    678.000    679.000    678.000    681.000    681.000    690.000    692.000    695.000    700.000    710.000    731.000    733.000    736.000    736.000    723.000    728.000    731.000    727.000    743.000    777.000    787.000    792.000    803.000    800.000    796.000    795.000    805.000    800.000    769.000    756.000    751.000    743.000    771.000    796.000    823.000    828.000    839.000    830.000    834.000    850.000    855.000    877.000    903.000    915.000
781.000    781.000    781.000    766.000    752.000    749.000    744.000    745.000    752.000    751.000    749.000    750.000    756.000    762.000    747.000    744.000    739.000    740.000    750.000    774.000    777.000    785.000    785.000    782.000    777.000    775.000    772.000    774.000    774.000    772.000    760.000    749.000    747.000    745.000    738.000    735.000    730.000    722.000    720.000    717.000    713.000    710.000    706.000    705.000    708.000    702.000    706.000    715.000    716.000    718.000    724.000    725.000    723.000    722.000    719.000    721.000    724.000    735.000    727.000    722.000    728.000    728.000    724.000    713.000    704.000    690.000    683.000    675.000    668.000    667.000    662.000    666.000    670.000    674.000    678.000    681.000    680.000    680.000    675.000    671.000    667.000    665.000    661.000    643.000    633.000    634.000    652.000    661.000    687.000    694.000    698.000    700.000    700.000    701.000    706.000    705.000    707.000    710.000    720.000    719.000    708.000    682.000    677.000    698.000    712.000    719.000    724.000    726.000    724.000    717.000    713.000    703.000    697.000    696.000    688.000    686.000    700.000    704.000    706.000    705.000    706.000    702.000    692.000    682.000    683.000    679.000    680.000    674.000    666.000    655.000    652.000    647.000    628.000    622.000    621.000    607.000    601.000    606.000    621.000    639.000    645.000    639.000    641.000    656.000    662.000    657.000    651.000    648.000    639.000    635.000    622.000    619.000    613.000    609.000    609.000    607.000    606.000    604.000    602.000    599.000    589.000    588.000    589.000    591.000    595.000    597.000    599.000    597.000    595.000    596.000    599.000    600.000    596.000    598.000    599.000    599.000    594.000    595.000    611.000    622.000    621.000    622.000    624.000    623.000    614.000    614.000    611.000    613.000    625.000    646.000    630.000    603.000    627.000    626.000    612.000    602.000    581.000    580.000    581.000    593.000    597.000    626.000    649.000    644.000    649.000    653.000    648.000    660.000    662.000    664.000    664.000    665.000    668.000    665.000    661.000    657.000    654.000    651.000    650.000    637.000    639.000    640.000    651.000    671.000    677.000    680.000    684.000    687.000    689.000    688.000    689.000    687.000    690.000    696.000    698.000    702.000    708.000    728.000    735.000    741.000    732.000    721.000    723.000    722.000    719.000    726.000    754.000    761.000    764.000    771.000    774.000    770.000    771.000    775.000    767.000    751.000    739.000    739.000    748.000    796.000    812.000    826.000    840.000    860.000    859.000    852.000    869.000    875.000    884.000    901.000    908.000
794.000    780.000    775.000    773.000    767.000    751.000    750.000    749.000    751.000    750.000    746.000    750.000    751.000    759.000    755.000    749.000    744.000    744.000    760.000    779.000    780.000    775.000    775.000    777.000    777.000    777.000    772.000    773.000    776.000    775.000    770.000    768.000    762.000    762.000    754.000    740.000    731.000    725.000    724.000    719.000    714.000    713.000    708.000    706.000    712.000    713.000    710.000    707.000    709.000    709.000    719.000    725.000    723.000    723.000    716.000    714.000    720.000    723.000    719.000    721.000    726.000    727.000    724.000    708.000    698.000    687.000    683.000    681.000    675.000    675.000    674.000    677.000    684.000    686.000    687.000    690.000    685.000    684.000    677.000    672.000    659.000    652.000    645.000    633.000    631.000    641.000    657.000    672.000    692.000    696.000    700.000    703.000    704.000    705.000    706.000    705.000    704.000    707.000    721.000    705.000    693.000    679.000    679.000    706.000    715.000    719.000    724.000    725.000    722.000    717.000    712.000    706.000    703.000    700.000    688.000    687.000    704.000    707.000    708.000    708.000    707.000    702.000    688.000    678.000    677.000    672.000    670.000    665.000    663.000    663.000    666.000    657.000    643.000    649.000    653.000    646.000    648.000    655.000    656.000    657.000    643.000    637.000    657.000    661.000    662.000    651.000    648.000    640.000    632.000    623.000    614.000    612.000    609.000    606.000    607.000    607.000    608.000    606.000    602.000    599.000    590.000    591.000    592.000    594.000    597.000    598.000    598.000    597.000    598.000    597.000    602.000    603.000    602.000    603.000    602.000    600.000    604.000    609.000    627.000    617.000    619.000    627.000    629.000    636.000    659.000    658.000    653.000    641.000    643.000    650.000    637.000    618.000    651.000    658.000    640.000    637.000    602.000    580.000    584.000    586.000    592.000    612.000    637.000    632.000    646.000    647.000    632.000    633.000    637.000    648.000    644.000    640.000    644.000    647.000    646.000    643.000    642.000    640.000    636.000    638.000    646.000    649.000    662.000    674.000    677.000    683.000    687.000    692.000    690.000    689.000    690.000    689.000    692.000    700.000    701.000    713.000    719.000    725.000    731.000    732.000    725.000    720.000    721.000    721.000    721.000    720.000    739.000    745.000    746.000    748.000    749.000    746.000    751.000    747.000    743.000    734.000    734.000    742.000    756.000    805.000    819.000    852.000    865.000    872.000    885.000    887.000    883.000    890.000    897.000    909.000    918.000
789.000    776.000    777.000    780.000    780.000    760.000    753.000    749.000    745.000    749.000    746.000    761.000    760.000    761.000    755.000    748.000    740.000    743.000    762.000    774.000    773.000    771.000    773.000    775.000    780.000    781.000    777.000    772.000    772.000    768.000    768.000    767.000    768.000    767.000    759.000    750.000    730.000    727.000    723.000    721.000    717.000    713.000    709.000    712.000    722.000    715.000    712.000    707.000    708.000    714.000    709.000    712.000    721.000    717.000    716.000    711.000    710.000    710.000    716.000    720.000    726.000    726.000    722.000    715.000    712.000    702.000    701.000    703.000    701.000    702.000    699.000    691.000    695.000    700.000    697.000    691.000    681.000    680.000    678.000    674.000    665.000    656.000    646.000    630.000    636.000    648.000    670.000    689.000    697.000    702.000    701.000    703.000    706.000    704.000    705.000    704.000    707.000    706.000    713.000    701.000    690.000    682.000    682.000    708.000    713.000    718.000    724.000    724.000    723.000    721.000    718.000    711.000    705.000    702.000    693.000    687.000    693.000    704.000    707.000    711.000    709.000    697.000    681.000    677.000    669.000    667.000    667.000    665.000    663.000    660.000    659.000    658.000    667.000    668.000    668.000    671.000    668.000    669.000    670.000    663.000    642.000    647.000    660.000    656.000    655.000    646.000    642.000    631.000    620.000    616.000    612.000    610.000    604.000    603.000    601.000    604.000    606.000    604.000    598.000    594.000    594.000    593.000    596.000    597.000    598.000    594.000    598.000    600.000    602.000    603.000    606.000    605.000    605.000    605.000    604.000    606.000    607.000    616.000    625.000    621.000    623.000    635.000    640.000    644.000    664.000    665.000    660.000    652.000    661.000    647.000    650.000    654.000    669.000    670.000    657.000    652.000    648.000    616.000    589.000    589.000    592.000    604.000    632.000    634.000    639.000    639.000    630.000    623.000    624.000    631.000    628.000    622.000    621.000    625.000    625.000    629.000    630.000    631.000    633.000    652.000    662.000    662.000    669.000    672.000    675.000    681.000    684.000    690.000    690.000    691.000    691.000    686.000    690.000    695.000    705.000    718.000    718.000    714.000    718.000    717.000    715.000    714.000    718.000    723.000    724.000    720.000    724.000    726.000    729.000    730.000    729.000    731.000    739.000    740.000    735.000    730.000    740.000    748.000    772.000    803.000    820.000    859.000    869.000    886.000    902.000    904.000    900.000    898.000    911.000    917.000    921.000
790.000    781.000    783.000    789.000    789.000    777.000    757.000    754.000    746.000    744.000    744.000    758.000    759.000    760.000    752.000    744.000    737.000    743.000    757.000    774.000    776.000    777.000    777.000    776.000    783.000    784.000    778.000    773.000    765.000    755.000    754.000    760.000    766.000    767.000    760.000    749.000    729.000    727.000    724.000    723.000    718.000    716.000    716.000    717.000    712.000    719.000    718.000    714.000    717.000    715.000    714.000    710.000    710.000    708.000    700.000    709.000    710.000    705.000    715.000    723.000    723.000    720.000    721.000    722.000    722.000    715.000    709.000    715.000    724.000    725.000    718.000    717.000    721.000    714.000    704.000    691.000    681.000    679.000    685.000    688.000    681.000    657.000    642.000    641.000    648.000    669.000    693.000    705.000    707.000    703.000    703.000    705.000    706.000    707.000    708.000    709.000    714.000    714.000    715.000    721.000    716.000    693.000    694.000    719.000    715.000    717.000    723.000    723.000    722.000    717.000    715.000    709.000    703.000    699.000    692.000    692.000    692.000    693.000    696.000    698.000    697.000    687.000    678.000    679.000    674.000    670.000    668.000    662.000    658.000    663.000    666.000    672.000    671.000    673.000    674.000    676.000    676.000    672.000    667.000    654.000    645.000    653.000    659.000    653.000    645.000    635.000    631.000    624.000    616.000    614.000    611.000    611.000    608.000    603.000    601.000    598.000    600.000    596.000    595.000    597.000    600.000    602.000    603.000    601.000    602.000    597.000    600.000    600.000    605.000    606.000    608.000    606.000    605.000    605.000    608.000    608.000    617.000    623.000    624.000    631.000    632.000    644.000    654.000    654.000    665.000    669.000    669.000    669.000    667.000    659.000    665.000    672.000    684.000    682.000    673.000    670.000    660.000    632.000    621.000    585.000    586.000    595.000    614.000    619.000    619.000    609.000    605.000    619.000    622.000    634.000    640.000    644.000    650.000    650.000    648.000    644.000    644.000    650.000    654.000    663.000    656.000    655.000    664.000    667.000    668.000    678.000    681.000    686.000    691.000    692.000    691.000    685.000    685.000    687.000    694.000    704.000    704.000    697.000    699.000    694.000    699.000    719.000    718.000    720.000    720.000    720.000    713.000    712.000    714.000    714.000    716.000    723.000    724.000    725.000    733.000    733.000    753.000    765.000    790.000    808.000    820.000    859.000    874.000    898.000    909.000    914.000    917.000    919.000    929.000    937.000    943.000
796.000    787.000    783.000    791.000    794.000    792.000    764.000    757.000    749.000    749.000    747.000    753.000    757.000    754.000    740.000    737.000    747.000    752.000    753.000    773.000    778.000    774.000    777.000    776.000    782.000    783.000    779.000    774.000    773.000    763.000    757.000    747.000    751.000    757.000    751.000    744.000    729.000    727.000    725.000    722.000    717.000    719.000    721.000    726.000    731.000    728.000    727.000    727.000    726.000    723.000    714.000    708.000    694.000    688.000    686.000    684.000    687.000    703.000    712.000    717.000    713.000    713.000    715.000    720.000    719.000    718.000    715.000    723.000    728.000    728.000    724.000    725.000    726.000    722.000    719.000    697.000    690.000    688.000    692.000    691.000    675.000    640.000    636.000    647.000    660.000    691.000    716.000    719.000    716.000    712.000    711.000    708.000    708.000    708.000    714.000    715.000    718.000    715.000    717.000    718.000    708.000    701.000    710.000    726.000    725.000    723.000    721.000    722.000    722.000    717.000    716.000    707.000    699.000    696.000    693.000    694.000    695.000    703.000    700.000    692.000    689.000    685.000    680.000    678.000    674.000    667.000    664.000    660.000    658.000    665.000    672.000    675.000    677.000    677.000    675.000    678.000    677.000    672.000    658.000    643.000    644.000    646.000    651.000    643.000    637.000    626.000    622.000    618.000    614.000    611.000    608.000    610.000    609.000    602.000    598.000    593.000    594.000    596.000    604.000    604.000    605.000    608.000    607.000    606.000    608.000    606.000    603.000    610.000    608.000    611.000    607.000    605.000    604.000    606.000    611.000    618.000    632.000    630.000    627.000    638.000    639.000    654.000    660.000    665.000    667.000    672.000    678.000    677.000    670.000    674.000    684.000    689.000    694.000    690.000    677.000    677.000    663.000    653.000    644.000    596.000    582.000    591.000    595.000    593.000    599.000    617.000    623.000    635.000    638.000    644.000    647.000    646.000    650.000    651.000    653.000    649.000    649.000    649.000    653.000    659.000    655.000    655.000    664.000    671.000    672.000    677.000    681.000    690.000    692.000    691.000    684.000    687.000    684.000    687.000    682.000    680.000    681.000    676.000    677.000    680.000    692.000    695.000    700.000    703.000    705.000    709.000    706.000    708.000    705.000    704.000    708.000    713.000    713.000    718.000    733.000    733.000    754.000    771.000    799.000    826.000    841.000    875.000    887.000    914.000    932.000    938.000    939.000    939.000    953.000    967.000    975.000
793.000    790.000    788.000    800.000    801.000    799.000    782.000    761.000    750.000    747.000    745.000    750.000    756.000    759.000    746.000    748.000    763.000    762.000    753.000    765.000    771.000    768.000    772.000    773.000    778.000    781.000    781.000    778.000    777.000    775.000    770.000    760.000    747.000    743.000    743.000    738.000    728.000    727.000    726.000    723.000    720.000    731.000    733.000    732.000    734.000    721.000    720.000    720.000    718.000    705.000    699.000    696.000    693.000    689.000    686.000    679.000    681.000    685.000    701.000    705.000    700.000    696.000    706.000    712.000    710.000    717.000    715.000    714.000    712.000    707.000    694.000    712.000    712.000    711.000    714.000    707.000    699.000    694.000    683.000    680.000    651.000    637.000    641.000    663.000    678.000    712.000    725.000    723.000    724.000    718.000    712.000    707.000    708.000    712.000    716.000    719.000    722.000    721.000    702.000    695.000    695.000    721.000    726.000    730.000    728.000    725.000    725.000    723.000    722.000    718.000    717.000    705.000    700.000    699.000    700.000    700.000    701.000    704.000    702.000    695.000    684.000    681.000    675.000    672.000    673.000    668.000    665.000    667.000    668.000    680.000    673.000    672.000    672.000    674.000    672.000    671.000    667.000    656.000    641.000    645.000    649.000    647.000    648.000    642.000    637.000    629.000    626.000    619.000    613.000    612.000    607.000    606.000    606.000    598.000    595.000    594.000    593.000    595.000    603.000    605.000    607.000    606.000    606.000    607.000    609.000    610.000    607.000    611.000    612.000    609.000    603.000    602.000    603.000    615.000    633.000    636.000    636.000    627.000    643.000    649.000    648.000    657.000    659.000    672.000    675.000    679.000    688.000    698.000    699.000    697.000    700.000    692.000    683.000    682.000    681.000    682.000    674.000    665.000    657.000    619.000    590.000    585.000    590.000    592.000    617.000    624.000    635.000    646.000    648.000    648.000    649.000    651.000    652.000    652.000    653.000    650.000    647.000    648.000    651.000    651.000    653.000    650.000    653.000    662.000    671.000    680.000    684.000    690.000    690.000    685.000    680.000    686.000    684.000    688.000    685.000    676.000    675.000    676.000    679.000    683.000    690.000    695.000    698.000    698.000    698.000    700.000    701.000    700.000    697.000    700.000    704.000    706.000    711.000    720.000    735.000    749.000    775.000    782.000    804.000    842.000    855.000    881.000    892.000    928.000    975.000    994.000    997.000    994.000    981.000    979.000  -9999.000
797.000    799.000    801.000    804.000    804.000    803.000    790.000    770.000    751.000    748.000    746.000    749.000    751.000    751.000    752.000    752.000    760.000    761.000    756.000    755.000    765.000    765.000    775.000    772.000    777.000    780.000    779.000    779.000    776.000    775.000    766.000    756.000    746.000    740.000    737.000    734.000    731.000    732.000    730.000    734.000    740.000    746.000    740.000    733.000    728.000    709.000    707.000    715.000    713.000    706.000    701.000    698.000    694.000    691.000    689.000    683.000    679.000    677.000    685.000    688.000    689.000    698.000    706.000    710.000    713.000    706.000    703.000    712.000    705.000    701.000    697.000    682.000    674.000    674.000    676.000    670.000    668.000    664.000    646.000    636.000    641.000    661.000    667.000    674.000    690.000    724.000    726.000    725.000    726.000    716.000    710.000    709.000    710.000    717.000    717.000    719.000    713.000    703.000    693.000    705.000    711.000    725.000    729.000    732.000    731.000    729.000    730.000    727.000    724.000    716.000    710.000    706.000    706.000    706.000    707.000    704.000    704.000    704.000    700.000    698.000    679.000    677.000    669.000    670.000    669.000    670.000    668.000    668.000    670.000    674.000    660.000    658.000    662.000    661.000    658.000    651.000    648.000    649.000    648.000    649.000    650.000    650.000    647.000    642.000    638.000    629.000    625.000    620.000    615.000    612.000    608.000    607.000    602.000    597.000    596.000    598.000    602.000    602.000    599.000    601.000    605.000    605.000    607.000    606.000    607.000    613.000    614.000    613.000    614.000    606.000    604.000    604.000    612.000    645.000    647.000    642.000    636.000    631.000    655.000    661.000    658.000    656.000    665.000    678.000    692.000    694.000    704.000    706.000    707.000    700.000    696.000    679.000    676.000    675.000    676.000    676.000    684.000    681.000    662.000    631.000    609.000    583.000    589.000    590.000    621.000    636.000    644.000    653.000    653.000    651.000    650.000    652.000    654.000    655.000    656.000    644.000    641.000    643.000    642.000    644.000    648.000    648.000    650.000    664.000    672.000    682.000    687.000    688.000    677.000    673.000    680.000    685.000    684.000    682.000    674.000    678.000    676.000    678.000    678.000    682.000    685.000    685.000    687.000    691.000    693.000    693.000    694.000    693.000    701.000    703.000    705.000    708.000    713.000    723.000    738.000    746.000    771.000    787.000    818.000    845.000    857.000    886.000    899.000    940.000    989.000    998.000  -9999.000  -9999.000  -9999.000  -9999.000  -9999.000
805.000    802.000    802.000    805.000    803.000    803.000    789.000    772.000    753.000    752.000    749.000    747.000    747.000    748.000    748.000    751.000    751.000    755.000    754.000    752.000    757.000    764.000    772.000    773.000    775.000    777.000    776.000    773.000    771.000    767.000    763.000    758.000    746.000    738.000    736.000    734.000    735.000    736.000    739.000    744.000    749.000    745.000    742.000    732.000    720.000    714.000    714.000    736.000    735.000    722.000    707.000    701.000    697.000    690.000    691.000    689.000    683.000    681.000    677.000    677.000    690.000    699.000    701.000    701.000    696.000    694.000    698.000    711.000    703.000    697.000    692.000    686.000    680.000    679.000    681.000    672.000    650.000    646.000    635.000    640.000    654.000    671.000    680.000    708.000    717.000    736.000    737.000    738.000    722.000    715.000    714.000    718.000    726.000    725.000    733.000    725.000    699.000    695.000    715.000    719.000    719.000    727.000    744.000    743.000    736.000    734.000    731.000    728.000    724.000    718.000    716.000    713.000    709.000    709.000    706.000    706.000    701.000    694.000    692.000    684.000    676.000    677.000    673.000    673.000    672.000    669.000    668.000    661.000    659.000    657.000    649.000    647.000    645.000    645.000    643.000    633.000    638.000    650.000    651.000    651.000    651.000    648.000    645.000    638.000    633.000    624.000    622.000    616.000    613.000    613.000    609.000    608.000    602.000    595.000    599.000    604.000    607.000    605.000    605.000    603.000    603.000    606.000    605.000    608.000    612.000    616.000    615.000    615.000    613.000    606.000    605.000    618.000    630.000    649.000    651.000    649.000    644.000    634.000    645.000    661.000    668.000    670.000    676.000    693.000    699.000    699.000    706.000    708.000    709.000    695.000    684.000    674.000    672.000    675.000    669.000    668.000    677.000    682.000    665.000    636.000    632.000    599.000    587.000    586.000    598.000    628.000    640.000    653.000    655.000    655.000    658.000    658.000    656.000    660.000    651.000    643.000    640.000    641.000    641.000    643.000    647.000    647.000    660.000    673.000    680.000    689.000    688.000    681.000    665.000    668.000    686.000    684.000    682.000    676.000    668.000    670.000    676.000    675.000    677.000    677.000    678.000    683.000    686.000    690.000    692.000    691.000    691.000    695.000    704.000    705.000    712.000    714.000    718.000    721.000    735.000    744.000    779.000    800.000    843.000    861.000    872.000    898.000    910.000    949.000   1003.000   1007.000  -9999.000  -9999.000  -9999.000  -9999.000  -9999.000
808.000    807.000    805.000    804.000    797.000    791.000    782.000    770.000    756.000    754.000    751.000    748.000    747.000    746.000    742.000    747.000    749.000    753.000    752.000    748.000    747.000    749.000    752.000    759.000    766.000    771.000    771.000    766.000    765.000    764.000    762.000    750.000    738.000    734.000    734.000    733.000    735.000    734.000    735.000    736.000    739.000    737.000    735.000    732.000    723.000    721.000    722.000    729.000    729.000    724.000    708.000    705.000    702.000    695.000    694.000    691.000    689.000    684.000    676.000    670.000    679.000    686.000    692.000    690.000    687.000    701.000    707.000    703.000    702.000    697.000    694.000    699.000    697.000    694.000    689.000    666.000    644.000    639.000    641.000    648.000    668.000    691.000    704.000    724.000    741.000    745.000    741.000    740.000    725.000    717.000    713.000    722.000    730.000    729.000    726.000    712.000    692.000    703.000    724.000    725.000    721.000    732.000    747.000    751.000    745.000    742.000    732.000    728.000    725.000    721.000    719.000    714.000    707.000    706.000    702.000    699.000    695.000    696.000    692.000    681.000    682.000    681.000    677.000    673.000    668.000    663.000    663.000    655.000    650.000    646.000    645.000    642.000    637.000    639.000    641.000    640.000    645.000    651.000    653.000    653.000    650.000    646.000    640.000    630.000    628.000    624.000    623.000    617.000    613.000    614.000    609.000    606.000    600.000    597.000    601.000    610.000    609.000    607.000    603.000    603.000    606.000    605.000    606.000    613.000    615.000    617.000    619.000    618.000    612.000    607.000    614.000    623.000    639.000    657.000    651.000    649.000    647.000    641.000    644.000    664.000    679.000    693.000    697.000    700.000    698.000    702.000    695.000    699.000    698.000    686.000    679.000    673.000    670.000    668.000    665.000    664.000    675.000    674.000    671.000    647.000    637.000    625.000    599.000    591.000    586.000    604.000    619.000    639.000    650.000    657.000    654.000    654.000    653.000    653.000    648.000    641.000    639.000    636.000    639.000    643.000    649.000    654.000    671.000    683.000    686.000    684.000    682.000    674.000    663.000    671.000    683.000    681.000    680.000    673.000    669.000    668.000    671.000    672.000    674.000    674.000    678.000    682.000    684.000    688.000    686.000    684.000    690.000    698.000    706.000    710.000    718.000    723.000    725.000    728.000    737.000    747.000    787.000    813.000    859.000    883.000    893.000    919.000    921.000    969.000   1010.000  -9999.000  -9999.000  -9999.000  -9999.000  -9999.000  -9999.000
808.000    808.000    804.000    802.000    797.000    793.000    781.000    771.000    756.000    754.000    751.000    748.000    746.000    743.000    741.000    745.000    745.000    750.000    747.000    752.000    758.000    754.000    748.000    745.000    745.000    752.000    761.000    761.000    760.000    758.000    757.000    743.000    733.000    729.000    729.000    730.000    730.000    731.000    730.000    730.000    731.000    732.000    728.000    725.000    723.000    717.000    714.000    710.000    711.000    710.000    707.000    702.000    699.000    696.000    695.000    691.000    690.000    685.000    680.000    674.000    669.000    672.000    671.000    680.000    692.000    706.000    709.000    703.000    699.000    703.000    703.000    707.000    703.000    691.000    682.000    653.000    638.000    641.000    650.000    662.000    687.000    712.000    717.000    729.000    744.000    745.000    743.000    744.000    729.000    718.000    725.000    735.000    738.000    737.000    725.000    721.000    694.000    693.000    702.000    706.000    708.000    728.000    740.000    741.000    745.000    744.000    731.000    727.000    729.000    730.000    730.000    722.000    710.000    709.000    704.000    703.000    710.000    703.000    710.000    710.000    681.000    679.000    671.000    669.000    666.000    662.000    661.000    655.000    647.000    652.000    653.000    651.000    644.000    645.000    643.000    641.000    646.000    653.000    653.000    652.000    645.000    643.000    633.000    623.000    622.000    621.000    621.000    616.000    615.000    614.000    611.000    606.000    602.000    601.000    603.000    609.000    607.000    605.000    605.000    606.000    607.000    608.000    611.000    614.000    616.000    619.000    619.000    615.000    616.000    617.000    625.000    641.000    653.000    656.000    647.000    649.000    650.000    654.000    654.000    677.000    692.000    701.000    706.000    706.000    700.000    706.000    687.000    685.000    685.000    678.000    675.000    672.000    669.000    664.000    661.000    660.000    657.000    656.000    654.000    636.000    631.000    614.000    609.000    603.000    594.000    588.000    596.000    620.000    635.000    641.000    645.000    649.000    645.000    645.000    642.000    638.000    637.000    637.000    643.000    645.000    656.000    663.000    677.000    683.000    682.000    678.000    675.000    670.000    660.000    661.000    677.000    675.000    676.000    664.000    667.000    667.000    667.000    674.000    676.000    675.000    677.000    682.000    686.000    684.000    679.000    685.000    692.000    694.000    700.000    704.000    711.000    721.000    725.000    733.000    744.000    755.000    791.000    811.000    870.000    897.000    909.000    938.000    952.000    995.000   1006.000   1007.000  -9999.000  -9999.000  -9999.000  -9999.000  -9999.000
808.000    809.000    806.000    804.000    798.000    791.000    775.000    769.000    757.000    751.000    750.000    748.000    745.000    744.000    746.000    744.000    745.000    751.000    746.000    760.000    769.000    769.000    767.000    762.000    743.000    740.000    738.000    748.000    747.000    755.000    757.000    748.000    729.000    727.000    726.000    728.000    729.000    729.000    729.000    724.000    726.000    728.000    724.000    721.000    721.000    712.000    710.000    705.000    703.000    704.000    701.000    701.000    696.000    694.000    694.000    695.000    694.000    691.000    682.000    684.000    679.000    675.000    667.000    665.000    670.000    687.000    694.000    687.000    690.000    694.000    709.000    700.000    695.000    681.000    669.000    646.000    642.000    644.000    659.000    670.000    707.000    723.000    727.000    736.000    744.000    744.000    742.000    742.000    731.000    740.000    743.000    745.000    740.000    738.000    722.000    723.000    714.000    704.000    695.000    699.000    710.000    729.000    733.000    734.000    738.000    739.000    732.000    730.000    737.000    735.000    729.000    720.000    711.000    706.000    702.000    705.000    714.000    714.000    714.000    704.000    690.000    680.000    676.000    673.000    668.000    659.000    657.000    658.000    656.000    659.000    658.000    657.000    658.000    654.000    648.000    642.000    647.000    655.000    652.000    649.000    643.000    637.000    628.000    622.000    621.000    616.000    615.000    615.000    616.000    617.000    612.000    605.000    601.000    601.000    604.000    606.000    605.000    607.000    609.000    604.000    610.000    611.000    612.000    616.000    618.000    622.000    615.000    614.000    625.000    632.000    630.000    662.000    667.000    655.000    649.000    654.000    656.000    665.000    677.000    690.000    697.000    705.000    708.000    705.000    699.000    699.000    683.000    681.000    674.000    671.000    674.000    668.000    667.000    667.000    653.000    648.000    642.000    632.000    629.000    623.000    622.000    617.000    612.000    612.000    611.000    593.000    588.000    596.000    604.000    619.000    631.000    634.000    649.000    642.000    636.000    633.000    634.000    643.000    649.000    651.000    667.000    674.000    678.000    676.000    677.000    674.000    668.000    667.000    656.000    652.000    656.000    661.000    663.000    665.000    671.000    675.000    679.000    680.000    683.000    683.000    682.000    686.000    686.000    678.000    678.000    685.000    696.000    698.000    704.000    706.000    708.000    718.000    722.000    735.000    752.000    763.000    791.000    805.000    861.000    898.000    910.000    953.000    983.000   1000.000   1003.000    998.000   1003.000  -9999.000  -9999.000  -9999.000  -9999.000
803.000    814.000    809.000    805.000    797.000    786.000    776.000    773.000    757.000    753.000    751.000    749.000    750.000    749.000    746.000    744.000    750.000    753.000    750.000    763.000    771.000    781.000    773.000    768.000    756.000    748.000    746.000    742.000    739.000    745.000    752.000    746.000    734.000    731.000    726.000    726.000    727.000    727.000    728.000    725.000    727.000    724.000    721.000    719.000    718.000    710.000    709.000    707.000    698.000    699.000    701.000    701.000    695.000    693.000    693.000    693.000    696.000    693.000    690.000    688.000    685.000    682.000    674.000    663.000    665.000    672.000    676.000    676.000    676.000    682.000    689.000    688.000    685.000    667.000    653.000    642.000    647.000    649.000    667.000    685.000    717.000    735.000    736.000    743.000    747.000    747.000    742.000    742.000    737.000    752.000    752.000    752.000    743.000    738.000    719.000    717.000    719.000    717.000    696.000    708.000    722.000    729.000    731.000    734.000    741.000    736.000    727.000    741.000    741.000    725.000    720.000    719.000    717.000    706.000    704.000    709.000    713.000    715.000    713.000    706.000    702.000    700.000    683.000    673.000    664.000    654.000    653.000    658.000    659.000    659.000    659.000    661.000    659.000    654.000    652.000    656.000    655.000    653.000    648.000    643.000    634.000    630.000    625.000    622.000    622.000    618.000    616.000    614.000    615.000    614.000    612.000    603.000    601.000    604.000    602.000    606.000    608.000    612.000    608.000    603.000    615.000    617.000    618.000    622.000    625.000    624.000    625.000    627.000    633.000    637.000    645.000    671.000    667.000    656.000    654.000    664.000    671.000    680.000    697.000    701.000    701.000    697.000    707.000    711.000    698.000    691.000    682.000    678.000    676.000    669.000    667.000    667.000    665.000    661.000    645.000    638.000    633.000    621.000    623.000    618.000    625.000    627.000    626.000    619.000    619.000    612.000    604.000    595.000    593.000    598.000    612.000    613.000    632.000    631.000    625.000    632.000    635.000    644.000    659.000    663.000    672.000    674.000    673.000    670.000    668.000    664.000    663.000    658.000    650.000    646.000    650.000    654.000    664.000    663.000    666.000    679.000    680.000    682.000    685.000    687.000    689.000    688.000    687.000    676.000    676.000    684.000    695.000    699.000    708.000    711.000    713.000    717.000    725.000    738.000    754.000    770.000    797.000    818.000    869.000    904.000    920.000    978.000    997.000    997.000    996.000    996.000    996.000    992.000    986.000    993.000  -9999.000
813.000    819.000    817.000    802.000    797.000    789.000    776.000    775.000    766.000    755.000    753.000    752.000    750.000    751.000    747.000    742.000    744.000    750.000    750.000    763.000    767.000    777.000    773.000    770.000    763.000    760.000    757.000    754.000    751.000    741.000    734.000    737.000    735.000    732.000    737.000    733.000    729.000    725.000    725.000    724.000    725.000    723.000    721.000    719.000    718.000    713.000    712.000    707.000    701.000    699.000    699.000    700.000    696.000    694.000    692.000    688.000    687.000    691.000    688.000    689.000    684.000    681.000    678.000    669.000    667.000    662.000    664.000    665.000    667.000    672.000    671.000    674.000    672.000    652.000    645.000    647.000    661.000    665.000    672.000    685.000    724.000    742.000    747.000    757.000    748.000    745.000    738.000    742.000    756.000    760.000    758.000    757.000    747.000    729.000    722.000    718.000    715.000    712.000    694.000    721.000    733.000    735.000    739.000    745.000    744.000    738.000    726.000    727.000    727.000    716.000    712.000    713.000    713.000    708.000    705.000    711.000    711.000    708.000    708.000    704.000    701.000    696.000    681.000    669.000    659.000    653.000    656.000    659.000    660.000    659.000    660.000    661.000    659.000    657.000    655.000    654.000    652.000    649.000    643.000    638.000    630.000    626.000    620.000    620.000    619.000    616.000    614.000    613.000    608.000    604.000    602.000    600.000    602.000    605.000    602.000    609.000    614.000    614.000    613.000    619.000    621.000    626.000    623.000    631.000    634.000    629.000    636.000    635.000    640.000    640.000    650.000    668.000    663.000    665.000    669.000    678.000    677.000    689.000    707.000    700.000    697.000    700.000    710.000    711.000    697.000    693.000    680.000    675.000    673.000    670.000    666.000    664.000    663.000    655.000    640.000    633.000    628.000    627.000    629.000    622.000    633.000    639.000    637.000    628.000    639.000    627.000    618.000    609.000    608.000    600.000    596.000    601.000    611.000    616.000    625.000    638.000    638.000    642.000    657.000    662.000    665.000    665.000    664.000    656.000    655.000    653.000    651.000    644.000    645.000    647.000    656.000    657.000    664.000    674.000    674.000    683.000    686.000    686.000    686.000    689.000    689.000    688.000    687.000    673.000    674.000    679.000    685.000    689.000    706.000    709.000    718.000    723.000    731.000    744.000    769.000    783.000    810.000    828.000    871.000    903.000    926.000    982.000    987.000    996.000    992.000    995.000    992.000    985.000    982.000    982.000  -9999.000
815.000    821.000    818.000    802.000    790.000    784.000    771.000    770.000    765.000    756.000    753.000    752.000    746.000    745.000    745.000    743.000    743.000    741.000    743.000    754.000    758.000    759.000    763.000    763.000    761.000    761.000    761.000    759.000    756.000    750.000    740.000    740.000    734.000    732.000    733.000    740.000    739.000    726.000    724.000    722.000    724.000    723.000    719.000    718.000    715.000    713.000    709.000    705.000    701.000    700.000    698.000    698.000    695.000    692.000    689.000    687.000    685.000    683.000    685.000    686.000    683.000    682.000    678.000    674.000    670.000    663.000    659.000    657.000    656.000    658.000    662.000    655.000    653.000    645.000    648.000    658.000    678.000    683.000    683.000    697.000    729.000    749.000    761.000    763.000    760.000    753.000    746.000    753.000    764.000    768.000    764.000    745.000    737.000    727.000    723.000    721.000    715.000    699.000    697.000    717.000    733.000    743.000    747.000    745.000    742.000    742.000    724.000    721.000    719.000    712.000    710.000    701.000    706.000    707.000    708.000    699.000    702.000    704.000    703.000    694.000    681.000    678.000    669.000    663.000    657.000    655.000    658.000    661.000    662.000    663.000    661.000    663.000    656.000    650.000    649.000    644.000    644.000    639.000    631.000    628.000    623.000    624.000    620.000    614.000    613.000    610.000    608.000    606.000    604.000    601.000    602.000    607.000    608.000    608.000    608.000    610.000    613.000    615.000    621.000    623.000    628.000    630.000    633.000    645.000    646.000    653.000    651.000    646.000    666.000    683.000    680.000    682.000    678.000    686.000    689.000    693.000    695.000    710.000    706.000    707.000    705.000    712.000    713.000    709.000    694.000    689.000    679.000    673.000    672.000    669.000    667.000    664.000    667.000    659.000    639.000    638.000    640.000    642.000    640.000    640.000    647.000    650.000    646.000    645.000    649.000    643.000    634.000    628.000    620.000    603.000    594.000    599.000    612.000    617.000    634.000    638.000    637.000    635.000    641.000    642.000    647.000    646.000    646.000    640.000    638.000    639.000    640.000    649.000    657.000    669.000    668.000    669.000    669.000    679.000    680.000    685.000    686.000    686.000    687.000    687.000    685.000    686.000    684.000    674.000    672.000    677.000    687.000    691.000    697.000    702.000    726.000    729.000    735.000    754.000    786.000    807.000    824.000    834.000    877.000    907.000    931.000    978.000    982.000    985.000    989.000    988.000    987.000    982.000    977.000    966.000  -9999.000
815.000    817.000    812.000    795.000    779.000    774.000    770.000    768.000    760.000    759.000    757.000    753.000    750.000    748.000    746.000    744.000    741.000    742.000    743.000    753.000    760.000    761.000    765.000    766.000    769.000    767.000    765.000    759.000    756.000    752.000    744.000    740.000    737.000    735.000    738.000    730.000    726.000    728.000    718.000    716.000    721.000    722.000    719.000    717.000    714.000    710.000    709.000    707.000    703.000    702.000    699.000    697.000    695.000    691.000    689.000    687.000    685.000    682.000    684.000    684.000    681.000    680.000    676.000    675.000    672.000    668.000    663.000    660.000    655.000    652.000    650.000    648.000    647.000    652.000    657.000    674.000    692.000    698.000    698.000    728.000    739.000    758.000    761.000    755.000    760.000    761.000    757.000    760.000    760.000    758.000    754.000    738.000    735.000    733.000    726.000    724.000    720.000    702.000    698.000    710.000    727.000    745.000    749.000    745.000    740.000    738.000    727.000    726.000    724.000    714.000    711.000    704.000    704.000    705.000    702.000    699.000    697.000    694.000    690.000    683.000    679.000    675.000    666.000    661.000    656.000    655.000    658.000    659.000    660.000    660.000    660.000    661.000    659.000    654.000    646.000    636.000    635.000    631.000    629.000    626.000    623.000    622.000    619.000    608.000    605.000    603.000    600.000    601.000    602.000    603.000    604.000    610.000    609.000    608.000    611.000    609.000    616.000    617.000    622.000    625.000    630.000    633.000    635.000    656.000    677.000    680.000    673.000    669.000    675.000    687.000    684.000    691.000    691.000    696.000    705.000    710.000    716.000    718.000    710.000    711.000    710.000    707.000    696.000    691.000    678.000    675.000    674.000    673.000    670.000    665.000    668.000    669.000    667.000    664.000    662.000    655.000    656.000    656.000    654.000    654.000    652.000    650.000    651.000    653.000    651.000    651.000    648.000    639.000    630.000    604.000    595.000    597.000    610.000    620.000    636.000    638.000    636.000    634.000    631.000    630.000    628.000    627.000    631.000    629.000    628.000    640.000    650.000    661.000    675.000    676.000    679.000    679.000    677.000    680.000    681.000    687.000    689.000    690.000    684.000    682.000    679.000    670.000    671.000    670.000    673.000    681.000    688.000    692.000    697.000    704.000    722.000    735.000    740.000    764.000    808.000    837.000    858.000    865.000    889.000    915.000    944.000    971.000    973.000    982.000    985.000    985.000    986.000    980.000    975.000    958.000  -9999.000
814.000    806.000    800.000    795.000    780.000    775.000    771.000    768.000    764.000    761.000    759.000    754.000    750.000    748.000    746.000    744.000    746.000    745.000    747.000    752.000    756.000    762.000    764.000    765.000    772.000    774.000    768.000    761.000    755.000    751.000    746.000    740.000    747.000    745.000    744.000    735.000    732.000    721.000    706.000    705.000    714.000    714.000    719.000    717.000    717.000    714.000    716.000    710.000    705.000    702.000    699.000    699.000    696.000    692.000    691.000    688.000    689.000    684.000    680.000    682.000    682.000    675.000    676.000    673.000    673.000    671.000    664.000    660.000    655.000    651.000    649.000    649.000    649.000    661.000    669.000    699.000    717.000    720.000    718.000    741.000    749.000    761.000    759.000    756.000    761.000    761.000    759.000    757.000    751.000    746.000    743.000    736.000    735.000    732.000    727.000    723.000    719.000    700.000    698.000    713.000    726.000    740.000    751.000    744.000    735.000    734.000    728.000    726.000    722.000    715.000    714.000    705.000    703.000    701.000    697.000    693.000    691.000    687.000    682.000    675.000    680.000    685.000    687.000    681.000    658.000    658.000    657.000    655.000    657.000    660.000    659.000    659.000    654.000    650.000    644.000    635.000    633.000    628.000    620.000    621.000    623.000    620.000    616.000    604.000    602.000    602.000    602.000    603.000    609.000    607.000    605.000    609.000    609.000    612.000    611.000    615.000    621.000    619.000    630.000    632.000    634.000    642.000    651.000    669.000    688.000    692.000    689.000    690.000    682.000    697.000    700.000    702.000    706.000    714.000    718.000    718.000    719.000    719.000    714.000    713.000    707.000    703.000    693.000    687.000    678.000    680.000    677.000    674.000    672.000    671.000    671.000    669.000    667.000    665.000    664.000    663.000    661.000    662.000    662.000    661.000    657.000    657.000    655.000    654.000    652.000    652.000    651.000    643.000    635.000    610.000    600.000    598.000    604.000    615.000    625.000    631.000    632.000    631.000    626.000    623.000    623.000    624.000    628.000    633.000    634.000    645.000    657.000    671.000    680.000    682.000    686.000    685.000    679.000    680.000    681.000    685.000    687.000    687.000    676.000    669.000    661.000    664.000    665.000    673.000    680.000    684.000    690.000    692.000    701.000    712.000    722.000    741.000    746.000    776.000    826.000    854.000    883.000    891.000    912.000    941.000    957.000    966.000    971.000    977.000    980.000    981.000    983.000    978.000    968.000    958.000  -9999.000
816.000    812.000    808.000    798.000    787.000    779.000    774.000    771.000    766.000    764.000    760.000    757.000    752.000    752.000    747.000    744.000    748.000    749.000    749.000    752.000    758.000  -9999.000  -9999.000    761.000    766.000    767.000    771.000    759.000    755.000    755.000    757.000    750.000    740.000    736.000    730.000    730.000    729.000    718.000    711.000    704.000    705.000    710.000    712.000    715.000    715.000    714.000    712.000    707.000    704.000    702.000    700.000    699.000    698.000    699.000    693.000    692.000    691.000    687.000    682.000    679.000    677.000    676.000    675.000    672.000    671.000    668.000    660.000    656.000    653.000    658.000    657.000    649.000    657.000    676.000    688.000    721.000    733.000    725.000    721.000    747.000    755.000    759.000    757.000    761.000    763.000    760.000    754.000    752.000    746.000    742.000    739.000    733.000    731.000    727.000    722.000    721.000    712.000    700.000    704.000    722.000    736.000    746.000    749.000    742.000    731.000    729.000    727.000    723.000    721.000    717.000    716.000    711.000    703.000    700.000    691.000    686.000    683.000    678.000    678.000    682.000    700.000    699.000    694.000    692.000    666.000    661.000    659.000    658.000    660.000    658.000    658.000    657.000    650.000    645.000    640.000    632.000    629.000    626.000    622.000    620.000    613.000    614.000    605.000    605.000    604.000    604.000    606.000    607.000    611.000    610.000    607.000    609.000    611.000    616.000    618.000    618.000    622.000    625.000    634.000    634.000    654.000    676.000    679.000    679.000    696.000    700.000    706.000    704.000    697.000    700.000    704.000    712.000    719.000    725.000    723.000    718.000    717.000    719.000    715.000    716.000    713.000    713.000    694.000    687.000    681.000    679.000    677.000    675.000    673.000    673.000    672.000    669.000    666.000    665.000    667.000    664.000    662.000    662.000    660.000    659.000    656.000    657.000    657.000    656.000    654.000    653.000    653.000    644.000    634.000    609.000    599.000    601.000    601.000    604.000    620.000    617.000    620.000    625.000    637.000    641.000    643.000    647.000    662.000    667.000    667.000    669.000    670.000    675.000    682.000    689.000    692.000    689.000    680.000    679.000    677.000    679.000    675.000    670.000    661.000    659.000    668.000    675.000    679.000    679.000    679.000    684.000    690.000    694.000    702.000    713.000    725.000    744.000    755.000    782.000    826.000    848.000    886.000    901.000    924.000    954.000    956.000    960.000    966.000    970.000    973.000    973.000    975.000    968.000    964.000    965.000  -9999.000
817.000    816.000    816.000    805.000    791.000    785.000    776.000    775.000    768.000    763.000    761.000    758.000    754.000    751.000    748.000    748.000    749.000    751.000    752.000    753.000  -9999.000  -9999.000  -9999.000    761.000    760.000    756.000    755.000    756.000    756.000    754.000    752.000    749.000    738.000    736.000    731.000    730.000    726.000    719.000    715.000    704.000    701.000    702.000    709.000    712.000    713.000    711.000    709.000    707.000    702.000    700.000    699.000    699.000    692.000    689.000    688.000    685.000    682.000    678.000    673.000    673.000    671.000    668.000    668.000    668.000    667.000    664.000    658.000    657.000    663.000    666.000    658.000    656.000    665.000    685.000    703.000    725.000    732.000    725.000    722.000    742.000    756.000    759.000    760.000    762.000    760.000    756.000    752.000    747.000    748.000    749.000    747.000    744.000    741.000    730.000    723.000    721.000    714.000    700.000    705.000    723.000    739.000    742.000    738.000    735.000    731.000    727.000    728.000    733.000    729.000    727.000    728.000    723.000    719.000    717.000    711.000    691.000    681.000    693.000    702.000    699.000    701.000    703.000    693.000    683.000    667.000    667.000    664.000    663.000    659.000    660.000    659.000    656.000    648.000    640.000    638.000    634.000    633.000    629.000    623.000    621.000    610.000    610.000    607.000    609.000    609.000    608.000    613.000    613.000    612.000    612.000    611.000    617.000    617.000    623.000    624.000    628.000    631.000    631.000    655.000    673.000    687.000    704.000    706.000    689.000    701.000    705.000    710.000    704.000    707.000    705.000    709.000    725.000    729.000    728.000    723.000    718.000    716.000    711.000    708.000    714.000    709.000    705.000    692.000    688.000    683.000    682.000    677.000    675.000    675.000    674.000    675.000    671.000    669.000    670.000    668.000    667.000    666.000    664.000    661.000    660.000    659.000    658.000    657.000    656.000    653.000    653.000    651.000    639.000    628.000    605.000    607.000    609.000    603.000    609.000    640.000    639.000    640.000    646.000    647.000    652.000    659.000    662.000    667.000    671.000    672.000    675.000    676.000    674.000    673.000    674.000    668.000    662.000    659.000    656.000    656.000    654.000    657.000    663.000    682.000    684.000    687.000    685.000    684.000    686.000    685.000    686.000    695.000    697.000    711.000    725.000    731.000    764.000    777.000    791.000    824.000    840.000    882.000    902.000    930.000    953.000    952.000    956.000    960.000    963.000    964.000    963.000    968.000    963.000    966.000    981.000    988.000
