ncols	240
nrows	74
xllcorner	4597369
yllcorner	2563847
cellsize	500
NODATA_value	-9999
-9999 -9999 -9999 -9999 -9999 -9999 -9999 -9999 -9999 -9999 -9999 -9999 -9999 -9999 -9999 2211 1900 1383 1082 1229 1395 1188 1145 1488 1705 1618 1293 1184 925 1031 1563 1732 2203 1780 1522 1852 1620 1658 1818 2193 2060 1880 1785 1636 1511 1375 1268 1143 889 726 723 760 812 1109 1295 1549 1525 1397 1099 1014 935 888 749 703 594 588 585 643 641 820 934 849 712 928 1081 840 647 697 944 1104 1115 1274 1409 1696 1837 -9999 -9999 -9999 -9999 -9999 -9999 1850 1638 1787 1833 1808 1689 -9999 -9999 -9999 -9999 1353 1270 1188 1159 1132 1356 1445 1461 1921 -9999 -9999 -9999 -9999 -9999 1677 1535 1481 1529 1474 1505 1444 1334 1111 1206 1395 1441 1496 1561 1584 -9999 -9999 -9999 -9999 -9999 -9999 -9999 -9999 -9999 1362 1328 1310 1456 -9999 -9999 -9999 -9999 -9999 -9999 -9999 -9999 -9999 -9999 -9999 -9999 -9999 -9999 -9999 -9999 -9999 -9999 -9999 -9999 -9999 -9999 -9999 -9999 -9999 -9999 -9999 -9999 -9999 -9999 -9999 -9999 -9999 -9999 -9999 -9999 -9999 -9999 -9999 -9999 -9999 -9999 -9999 -9999 -9999 -9999 -9999 -9999 -9999 -9999 -9999 -9999 -9999 -9999 -9999 -9999 -9999 -9999 -9999 -9999 -9999 -9999 -9999 -9999 -9999 -9999 -9999 -9999 -9999 -9999 -9999 -9999 -9999 -9999 -9999 -9999 -9999 -9999 -9999 -9999 -9999 -9999 -9999 -9999 -9999 -9999 -9999 -9999 -9999 -9999 -9999 -9999 -9999 -9999 -9999 -9999 -9999
-9999 -9999 -9999 -9999 -9999 -9999 -9999 -9999 -9999 -9999 -9999 -9999 -9999 -9999 -9999 2095 1781 1218 1097 1542 1569 1303 1439 1835 1794 1445 1388 1161 952 1053 1450 1640 1976 2264 1941 2021 2054 2098 2310 2175 2115 1665 1546 1450 1199 1120 957 831 727 745 861 821 903 1415 1272 1360 1267 1277 1309 1355 1385 1277 1008 886 757 742 589 584 584 628 718 583 595 791 857 777 647 751 943 929 970 1067 1263 1325 1633 1958 -9999 -9999 -9999 -9999 1968 1622 1494 1593 1619 1529 1497 1542 1625 1526 1277 1176 1054 1054 1054 1164 1241 1518 1701 1837 1833 1701 1748 1629 1578 1582 1481 1454 1473 1348 1349 1344 1239 1073 1160 1351 1323 1286 1386 1513 1590 -9999 -9999 -9999 1292 -9999 -9999 -9999 1284 1349 1241 1163 1246 1220 1171 -9999 -9999 -9999 -9999 -9999 -9999 -9999 -9999 -9999 -9999 -9999 -9999 -9999 -9999 -9999 -9999 -9999 -9999 -9999 -9999 -9999 -9999 -9999 -9999 -9999 -9999 -9999 -9999 -9999 -9999 -9999 -9999 -9999 -9999 -9999 -9999 -9999 -9999 -9999 -9999 -9999 -9999 -9999 -9999 -9999 -9999 -9999 -9999 -9999 -9999 -9999 -9999 -9999 -9999 -9999 -9999 -9999 -9999 -9999 -9999 -9999 -9999 -9999 -9999 -9999 -9999 -9999 -9999 -9999 -9999 -9999 -9999 -9999 -9999 -9999 -9999 -9999 -9999 -9999 -9999 -9999 -9999 -9999 -9999 -9999 -9999 -9999 -9999 -9999 -9999 -9999 -9999 -9999 -9999 -9999
-9999 -9999 -9999 -9999 -9999 -9999 -9999 -9999 -9999 -9999 -9999 -9999 -9999 -9999 -9999 2132 1529 1124 1126 1770 1820 1694 1688 1711 1517 1310 1159 1070 976 1081 1450 1644 2043 2240 2353 2487 2466 2425 2390 2204 2018 1526 1318 1215 1035 970 802 802 891 1017 1025 903 949 1046 978 1046 962 1026 1121 1273 1419 1436 1387 1327 922 845 726 753 597 576 576 562 562 588 610 705 647 668 675 686 892 949 1209 1273 1360 1552 1383 1661 1822 1949 1902 1518 1300 1461 1502 1363 1679 1593 1512 1439 1403 1383 1234 1054 1054 1547 1606 1551 1498 1390 1474 1485 1565 1440 1438 1500 1441 1383 1314 1174 1271 1230 1128 1014 1072 1114 1109 1251 1374 1501 1461 1475 1386 1330 1201 1416 1498 1456 1358 1085 1127 1065 1042 1187 1267 1180 -9999 -9999 -9999 -9999 -9999 -9999 -9999 -9999 -9999 -9999 -9999 -9999 -9999 -9999 -9999 -9999 -9999 -9999 -9999 -9999 -9999 -9999 -9999 -9999 -9999 -9999 -9999 -9999 -9999 -9999 -9999 -9999 -9999 -9999 -9999 -9999 -9999 -9999 -9999 -9999 -9999 -9999 -9999 -9999 -9999 -9999 -9999 -9999 -9999 -9999 -9999 -9999 -9999 -9999 -9999 -9999 -9999 -9999 -9999 -9999 -9999 -9999 -9999 -9999 -9999 -9999 -9999 -9999 -9999 -9999 -9999 -9999 -9999 -9999 -9999 -9999 -9999 -9999 -9999 -9999 -9999 -9999 -9999 -9999 -9999 -9999 -9999 -9999 -9999 -9999 -9999 -9999 -9999 -9999
-9999 -9999 -9999 -9999 -9999 -9999 -9999 -9999 -9999 -9999 -9999 -9999 -9999 -9999 2001 1897 1320 1182 1271 1658 1932 1923 1892 1527 1445 1272 1188 1284 1005 1044 1410 1591 1801 1752 2165 2356 2260 2235 2157 1900 1776 1441 1280 1046 888 812 955 1087 1300 1342 984 836 782 756 756 738 738 766 954 1149 1263 1441 1226 1250 1126 1033 958 864 1070 1004 763 640 601 550 550 561 564 577 602 838 956 983 1161 1248 1247 1063 1202 1274 1554 1656 1617 1530 1331 1144 1209 1405 1702 1899 1854 1751 1764 1583 1279 1056 1054 1269 1285 1318 1235 1186 1214 1356 1498 1327 1298 1318 1349 1221 1026 1014 1182 1205 1194 1014 1179 1019 1077 1313 1460 1481 1440 1358 1277 1169 1159 1306 1295 1238 1239 1080 981 921 942 1056 1182 1381 1284 -9999 -9999 -9999 -9999 -9999 -9999 -9999 -9999 -9999 -9999 -9999 -9999 -9999 -9999 -9999 -9999 -9999 -9999 -9999 -9999 -9999 -9999 -9999 -9999 -9999 -9999 -9999 -9999 -9999 -9999 -9999 -9999 -9999 -9999 -9999 -9999 -9999 -9999 -9999 -9999 -9999 -9999 -9999 -9999 -9999 -9999 -9999 -9999 -9999 -9999 -9999 -9999 -9999 -9999 -9999 -9999 -9999 -9999 -9999 -9999 -9999 -9999 -9999 -9999 -9999 -9999 -9999 -9999 -9999 -9999 -9999 -9999 -9999 -9999 -9999 -9999 -9999 -9999 -9999 -9999 -9999 -9999 -9999 -9999 -9999 -9999 -9999 -9999 -9999 -9999 -9999 -9999 -9999
-9999 -9999 -9999 -9999 -9999 -9999 -9999 -9999 -9999 -9999 -9999 -9999 -9999 -9999 1786 1556 1260 1321 1519 1802 2270 -9999 1777 1645 1542 1241 1330 1647 1078 1067 1260 1350 1712 1971 2595 2502 2221 1985 1976 1783 1628 1206 1097 941 891 874 1277 1411 1129 1004 885 882 775 767 798 1034 1114 729 729 1034 1077 1187 1255 1143 1137 1153 1155 1172 1217 1232 1030 933 935 701 605 550 550 555 561 760 852 887 1014 1047 1005 903 1085 1204 1317 1446 1365 1268 1093 1282 1448 1712 1830 1862 1870 1875 1451 1351 1091 926 842 900 1098 1062 970 1055 1161 1366 1418 1276 1156 1150 1242 1284 1120 933 1032 1040 1040 925 930 1095 1179 1325 1481 1382 1297 1163 1025 1003 1185 1265 1074 1130 1197 1165 910 895 907 1007 1168 1596 1449 1490 -9999 -9999 -9999 -9999 -9999 -9999 -9999 -9999 -9999 -9999 -9999 -9999 -9999 -9999 -9999 -9999 -9999 -9999 -9999 -9999 -9999 -9999 -9999 -9999 -9999 -9999 -9999 -9999 -9999 -9999 -9999 -9999 -9999 -9999 -9999 -9999 -9999 -9999 -9999 -9999 -9999 -9999 -9999 -9999 -9999 -9999 -9999 -9999 -9999 -9999 -9999 -9999 -9999 -9999 -9999 -9999 -9999 -9999 -9999 -9999 -9999 -9999 -9999 -9999 -9999 -9999 -9999 -9999 -9999 -9999 -9999 -9999 -9999 -9999 -9999 -9999 -9999 -9999 -9999 -9999 -9999 -9999 -9999 -9999 -9999 -9999 -9999 -9999 -9999 -9999 -9999 -9999
-9999 -9999 -9999 -9999 -9999 -9999 -9999 -9999 -9999 -9999 -9999 -9999 -9999 -9999 1873 1433 1446 1616 1962 2231 2107 -9999 -9999 1687 1554 1361 1648 1815 1431 1141 1266 1329 1849 2287 2305 2206 2052 1930 1695 1475 1321 1033 969 896 969 1195 1312 1225 1004 1012 1253 1006 778 865 1354 1342 1117 911 729 749 867 956 1010 1170 1192 1108 1146 1164 1191 1208 1202 1206 1141 974 877 630 551 546 546 675 647 726 646 752 802 794 976 1034 1165 1164 1243 1047 971 1311 1487 1523 1545 1509 1510 1279 1209 1163 931 831 755 770 1076 1008 873 1077 1146 1365 1332 1257 1128 1113 1270 1094 1020 848 848 888 888 888 977 1055 1129 1353 1433 1338 1266 1093 1041 953 974 1029 926 978 1154 1127 893 937 905 958 1115 1445 1619 1596 -9999 -9999 -9999 -9999 -9999 -9999 -9999 -9999 -9999 -9999 -9999 -9999 -9999 -9999 -9999 -9999 -9999 -9999 -9999 -9999 -9999 -9999 -9999 -9999 -9999 -9999 -9999 -9999 -9999 -9999 -9999 -9999 -9999 -9999 -9999 -9999 -9999 -9999 -9999 -9999 -9999 -9999 -9999 -9999 -9999 -9999 -9999 -9999 -9999 -9999 -9999 -9999 -9999 -9999 -9999 -9999 -9999 -9999 -9999 -9999 -9999 -9999 -9999 -9999 -9999 -9999 -9999 -9999 -9999 -9999 -9999 -9999 -9999 -9999 -9999 -9999 -9999 -9999 -9999 -9999 -9999 -9999 -9999 -9999 -9999 -9999 -9999 -9999 -9999 -9999 -9999 -9999
-9999 -9999 -9999 -9999 -9999 -9999 -9999 -9999 -9999 -9999 -9999 -9999 -9999 -9999 1794 1591 1954 2173 2201 -9999 -9999 -9999 -9999 -9999 1699 1958 2109 2016 1669 1516 1389 1483 2209 2292 2374 1989 1557 1582 1576 1356 1069 950 896 1026 1148 1449 1329 1004 1085 1247 1120 892 848 1025 1550 1438 1189 912 804 729 729 779 887 1148 969 1009 1085 1061 1069 1128 1124 1130 1118 1073 753 769 589 549 551 546 556 555 540 603 681 825 880 1015 1046 994 1030 996 971 1210 1253 1215 1201 1280 1053 1113 1257 1184 1043 1098 795 697 804 798 935 1027 1211 1309 1232 1290 1101 866 956 847 847 915 898 1055 1078 998 1062 1089 1237 1372 1449 1341 1332 1257 1219 995 953 855 929 978 991 990 893 1056 1133 1009 1081 1300 1449 1486 -9999 -9999 -9999 -9999 -9999 -9999 -9999 -9999 -9999 -9999 -9999 -9999 -9999 -9999 -9999 -9999 -9999 -9999 -9999 -9999 -9999 -9999 -9999 -9999 -9999 -9999 -9999 -9999 -9999 -9999 -9999 -9999 -9999 -9999 -9999 -9999 -9999 -9999 -9999 -9999 -9999 -9999 -9999 -9999 -9999 -9999 -9999 -9999 -9999 -9999 -9999 -9999 -9999 -9999 -9999 -9999 -9999 -9999 -9999 -9999 -9999 -9999 -9999 -9999 -9999 -9999 -9999 -9999 -9999 -9999 -9999 -9999 -9999 -9999 -9999 -9999 -9999 -9999 -9999 -9999 -9999 -9999 -9999 -9999 -9999 -9999 -9999 -9999 -9999 -9999 -9999 -9999
-9999 -9999 -9999 -9999 -9999 -9999 -9999 -9999 -9999 -9999 -9999 -9999 -9999 -9999 2053 2164 1949 -9999 -9999 -9999 -9999 -9999 -9999 -9999 -9999 -9999 -9999 -9999 -9999 1987 1965 1663 2282 2232 2037 1963 1431 1327 1203 1098 982 952 1053 1241 1419 1181 1011 1024 1126 1313 992 859 971 1142 1454 1322 1097 1016 1041 942 946 729 805 978 967 981 988 1001 1079 1078 1075 1052 966 1006 688 712 734 576 576 562 546 523 523 578 636 631 698 823 914 867 865 814 991 1146 1199 1079 867 1034 947 1182 1205 1361 1279 1109 863 693 742 824 831 872 1191 1157 903 934 884 847 847 972 997 1006 1022 1198 1118 1135 1014 1114 1290 1432 1252 1138 1207 1436 1400 1127 1066 912 828 914 897 893 985 1101 1284 1084 1009 1018 1238 1518 -9999 -9999 -9999 -9999 -9999 -9999 -9999 -9999 -9999 -9999 -9999 -9999 -9999 -9999 -9999 -9999 -9999 -9999 -9999 -9999 -9999 -9999 -9999 -9999 -9999 -9999 -9999 -9999 -9999 -9999 -9999 -9999 -9999 -9999 -9999 -9999 -9999 -9999 -9999 -9999 -9999 -9999 -9999 -9999 -9999 -9999 -9999 -9999 -9999 -9999 -9999 -9999 -9999 -9999 -9999 -9999 -9999 -9999 -9999 -9999 -9999 -9999 -9999 -9999 -9999 -9999 -9999 -9999 -9999 -9999 -9999 -9999 -9999 -9999 -9999 -9999 -9999 -9999 -9999 -9999 -9999 -9999 -9999 -9999 -9999 -9999 -9999 -9999 -9999 -9999 -9999 -9999
-9999 -9999 -9999 -9999 -9999 -9999 -9999 -9999 -9999 -9999 -9999 -9999 -9999 2352 2117 -9999 -9999 -9999 -9999 -9999 -9999 -9999 -9999 -9999 -9999 -9999 -9999 -9999 -9999 -9999 2300 2057 1847 2245 1943 1751 1378 1205 1046 1012 1016 1078 1234 1554 1559 1047 1011 1194 1308 1347 1136 859 1098 1347 1388 1258 1268 1284 1226 1199 1089 729 729 757 949 1003 958 940 975 956 943 890 816 921 688 721 801 583 546 546 551 523 543 555 558 684 797 703 751 770 781 856 1033 1136 1074 931 837 777 958 1004 1115 1257 1050 916 731 741 664 728 921 986 1068 1147 975 802 847 970 991 1061 1183 1131 1107 1136 1288 1282 1113 1112 1438 1488 1165 1058 1020 1253 1290 1108 984 941 828 828 893 893 974 1065 1256 1419 1090 1012 1222 1418 -9999 -9999 -9999 -9999 -9999 -9999 -9999 -9999 -9999 -9999 -9999 -9999 -9999 -9999 -9999 -9999 -9999 -9999 -9999 -9999 -9999 -9999 -9999 -9999 -9999 -9999 -9999 -9999 -9999 -9999 -9999 -9999 -9999 -9999 -9999 -9999 -9999 -9999 -9999 -9999 -9999 -9999 -9999 -9999 -9999 -9999 -9999 -9999 -9999 -9999 -9999 -9999 -9999 -9999 -9999 -9999 -9999 -9999 -9999 -9999 -9999 -9999 -9999 -9999 -9999 -9999 -9999 -9999 -9999 -9999 -9999 -9999 -9999 -9999 -9999 -9999 -9999 -9999 -9999 -9999 -9999 -9999 -9999 -9999 -9999 -9999 -9999 -9999 -9999 -9999 -9999 -9999
-9999 -9999 -9999 -9999 -9999 -9999 -9999 -9999 -9999 -9999 -9999 -9999 -9999 -9999 -9999 -9999 -9999 -9999 -9999 -9999 -9999 -9999 -9999 -9999 -9999 -9999 -9999 -9999 -9999 -9999 -9999 2250 2186 2267 2097 1942 1422 1187 1012 1012 1239 1320 1229 1499 1522 1011 1073 1442 1642 1333 1146 859 949 1418 1423 1329 1423 1544 1424 1231 1354 891 729 824 995 1017 989 940 954 869 799 745 794 785 688 846 791 637 588 637 640 523 541 540 549 553 575 674 870 978 917 957 980 964 943 809 732 934 976 1119 1194 1050 955 905 834 990 658 691 929 1013 968 1111 967 802 852 1027 1116 1191 1237 1266 1221 1236 1259 1409 1211 1195 1406 1513 1357 1173 888 1009 1041 986 879 828 828 1086 1110 997 962 1028 1193 1335 1130 1025 1146 1409 1989 -9999 -9999 -9999 -9999 -9999 -9999 -9999 -9999 -9999 -9999 -9999 -9999 -9999 -9999 -9999 -9999 -9999 -9999 -9999 -9999 -9999 -9999 -9999 -9999 -9999 -9999 -9999 -9999 -9999 -9999 -9999 -9999 -9999 -9999 -9999 -9999 -9999 -9999 -9999 -9999 -9999 -9999 -9999 -9999 -9999 -9999 -9999 -9999 -9999 -9999 -9999 -9999 -9999 -9999 -9999 -9999 -9999 -9999 -9999 -9999 -9999 -9999 -9999 -9999 -9999 -9999 -9999 -9999 -9999 -9999 -9999 -9999 -9999 -9999 -9999 -9999 -9999 -9999 -9999 -9999 -9999 -9999 -9999 -9999 -9999 -9999 -9999 -9999 -9999 -9999 -9999
-9999 -9999 -9999 -9999 -9999 -9999 -9999 -9999 -9999 -9999 -9999 -9999 -9999 -9999 -9999 -9999 -9999 -9999 -9999 -9999 -9999 -9999 -9999 -9999 -9999 -9999 -9999 -9999 -9999 -9999 -9999 -9999 -9999 2208 2318 2125 1356 1134 1028 1159 1494 2140 1756 1734 1335 1364 1520 1775 1774 1230 988 905 1066 1503 1562 1529 1643 1589 1359 1480 1243 1001 729 900 912 933 889 866 867 882 863 769 692 688 802 838 769 837 693 645 540 523 535 533 545 542 541 545 576 782 1030 1099 905 854 954 808 694 729 833 1043 1201 1208 1095 1027 1094 803 714 630 783 719 981 975 974 802 933 972 1109 1265 1355 1428 1397 1360 1411 1486 1381 1441 1566 1637 1248 1133 1044 839 828 828 828 902 1075 1227 1243 1127 1239 1064 1083 1407 1226 1085 1163 1359 1988 -9999 -9999 -9999 -9999 -9999 -9999 -9999 -9999 -9999 -9999 -9999 -9999 -9999 -9999 -9999 -9999 -9999 -9999 -9999 -9999 -9999 -9999 -9999 -9999 -9999 -9999 -9999 -9999 -9999 -9999 -9999 -9999 -9999 -9999 -9999 -9999 -9999 -9999 -9999 -9999 -9999 -9999 -9999 -9999 -9999 -9999 -9999 -9999 -9999 -9999 -9999 -9999 -9999 -9999 -9999 -9999 -9999 -9999 -9999 -9999 -9999 -9999 -9999 -9999 -9999 -9999 -9999 -9999 -9999 -9999 -9999 -9999 -9999 -9999 -9999 -9999 -9999 -9999 -9999 -9999 -9999 -9999 -9999 -9999 -9999 -9999 -9999 -9999 -9999 -9999 -9999
-9999 -9999 -9999 -9999 -9999 -9999 -9999 -9999 -9999 -9999 -9999 -9999 -9999 -9999 -9999 -9999 -9999 -9999 -9999 -9999 -9999 -9999 -9999 -9999 -9999 -9999 -9999 -9999 -9999 -9999 -9999 -9999 -9999 -9999 2113 2158 1935 1096 1135 1341 2246 2220 2031 1879 1542 1603 1918 1741 1414 1042 905 1052 1189 1775 1749 1656 1577 1599 1543 1525 1425 1205 759 729 729 729 820 834 847 835 829 779 781 643 634 602 584 599 621 562 485 472 531 531 537 538 535 536 543 631 692 737 793 684 836 936 694 804 974 1031 1163 1357 1315 1252 1152 879 942 832 630 781 818 762 711 644 979 1060 1141 1247 1319 1508 1590 1643 1581 1507 1574 1605 1570 1483 1217 1167 839 851 919 913 982 828 905 1181 1296 1628 1411 1129 1142 1390 1447 1210 1262 1492 1915 -9999 -9999 -9999 -9999 -9999 -9999 -9999 -9999 -9999 -9999 -9999 -9999 -9999 -9999 -9999 -9999 -9999 -9999 -9999 -9999 -9999 -9999 -9999 -9999 -9999 -9999 -9999 -9999 -9999 -9999 -9999 -9999 -9999 -9999 -9999 -9999 -9999 -9999 -9999 -9999 -9999 -9999 -9999 -9999 -9999 -9999 -9999 -9999 -9999 -9999 -9999 -9999 -9999 -9999 -9999 -9999 -9999 -9999 -9999 -9999 -9999 -9999 -9999 -9999 -9999 -9999 -9999 -9999 -9999 -9999 -9999 -9999 -9999 -9999 -9999 -9999 -9999 -9999 -9999 -9999 -9999 -9999 -9999 -9999 -9999 -9999 -9999 -9999 -9999 -9999 -9999
-9999 -9999 -9999 -9999 -9999 -9999 -9999 -9999 -9999 -9999 -9999 -9999 -9999 -9999 -9999 -9999 -9999 -9999 -9999 -9999 -9999 -9999 -9999 -9999 -9999 -9999 -9999 -9999 -9999 -9999 -9999 -9999 -9999 -9999 2151 1765 1721 1105 1176 1905 2174 2114 2072 1981 2147 2192 2009 1732 1226 925 918 1364 1380 1873 1775 1614 1585 1570 1552 1489 1405 1360 1000 914 864 747 668 829 814 836 843 735 719 669 599 579 553 539 530 527 487 472 494 526 527 524 533 533 533 555 542 655 750 675 676 688 688 947 1217 1225 1255 1603 1516 1280 1176 1090 1042 769 630 664 912 816 644 750 927 1025 1063 1123 1231 1374 1490 1558 1290 1343 1506 1523 1354 1341 1175 1031 973 1142 1101 976 830 767 1066 1232 1259 1638 1608 1281 1312 1503 1818 1554 1525 1703 1825 1981 -9999 -9999 -9999 -9999 -9999 -9999 -9999 -9999 -9999 -9999 -9999 -9999 -9999 -9999 -9999 -9999 -9999 -9999 -9999 -9999 -9999 -9999 -9999 -9999 -9999 -9999 -9999 -9999 -9999 -9999 -9999 -9999 -9999 -9999 -9999 -9999 -9999 -9999 -9999 -9999 -9999 -9999 -9999 -9999 -9999 -9999 -9999 -9999 -9999 -9999 -9999 -9999 -9999 -9999 -9999 -9999 -9999 -9999 -9999 -9999 -9999 -9999 -9999 -9999 -9999 -9999 -9999 -9999 -9999 -9999 -9999 -9999 -9999 -9999 -9999 -9999 -9999 -9999 -9999 -9999 -9999 -9999 -9999 -9999 -9999 -9999 -9999 -9999 -9999 -9999
-9999 -9999 -9999 -9999 -9999 -9999 -9999 -9999 -9999 -9999 -9999 -9999 -9999 -9999 -9999 -9999 -9999 -9999 -9999 -9999 -9999 -9999 -9999 -9999 -9999 -9999 -9999 -9999 -9999 -9999 -9999 -9999 -9999 -9999 2094 1472 1381 1229 1463 1993 2334 2332 2160 2394 2339 2198 1583 1368 1000 930 1033 1496 1879 1730 1667 1516 1498 1506 1462 1342 1301 1301 1210 1166 1030 1013 764 668 643 753 862 784 611 613 604 557 539 522 517 519 515 514 458 511 523 520 524 527 527 525 527 547 570 576 587 597 734 863 1186 1231 1461 1501 1446 1197 1067 999 1049 881 688 547 651 800 578 672 844 911 988 1035 1093 1092 1164 1138 1188 1319 1465 1384 1224 1166 1124 974 1186 1326 1259 1104 787 767 885 999 1234 1557 1860 1655 1653 1874 1991 1834 1940 2143 2254 2204 2272 -9999 -9999 -9999 -9999 -9999 -9999 -9999 -9999 -9999 -9999 -9999 -9999 -9999 -9999 -9999 -9999 -9999 -9999 -9999 -9999 -9999 -9999 -9999 -9999 -9999 -9999 -9999 -9999 -9999 -9999 -9999 -9999 -9999 -9999 -9999 -9999 -9999 -9999 -9999 -9999 -9999 -9999 -9999 -9999 -9999 -9999 -9999 -9999 -9999 -9999 -9999 -9999 -9999 -9999 -9999 -9999 -9999 -9999 -9999 -9999 -9999 -9999 -9999 -9999 -9999 -9999 -9999 -9999 -9999 -9999 -9999 -9999 -9999 -9999 -9999 -9999 -9999 -9999 -9999 -9999 -9999 -9999 -9999 -9999 -9999 -9999 -9999 -9999 -9999
-9999 -9999 -9999 -9999 -9999 -9999 -9999 -9999 -9999 -9999 -9999 -9999 -9999 -9999 -9999 -9999 -9999 -9999 -9999 -9999 -9999 -9999 -9999 -9999 -9999 -9999 -9999 -9999 -9999 -9999 -9999 -9999 -9999 -9999 1892 1452 1615 1711 1932 2272 2219 2343 2223 2229 2040 1888 1472 1205 950 978 1512 1890 1935 1503 1495 1439 1436 1464 1468 1365 1268 1276 1188 1130 1015 1006 950 911 717 641 641 620 639 596 589 530 524 510 509 506 514 511 495 458 516 518 518 514 522 531 526 539 549 566 576 681 691 758 898 1049 1240 1321 1397 1331 1088 855 945 982 844 628 530 657 544 648 712 720 808 887 962 962 962 962 1106 1234 1260 1556 1434 1173 1112 1206 1373 1534 1295 1152 790 767 898 1056 1327 1395 1774 2063 2064 2285 2236 2166 2335 2241 2291 2206 1835 1712 1898 2053 1814 1720 2199 -9999 2217 1978 1858 1831 1831 -9999 -9999 -9999 -9999 -9999 -9999 -9999 -9999 -9999 -9999 -9999 -9999 -9999 -9999 -9999 -9999 -9999 -9999 -9999 -9999 -9999 -9999 -9999 -9999 -9999 -9999 -9999 -9999 -9999 -9999 -9999 -9999 -9999 -9999 -9999 -9999 -9999 -9999 -9999 -9999 -9999 -9999 -9999 -9999 -9999 -9999 -9999 -9999 -9999 -9999 -9999 -9999 -9999 -9999 -9999 -9999 -9999 -9999 -9999 -9999 -9999 -9999 -9999 -9999 -9999 -9999 -9999 -9999 -9999 -9999 -9999 -9999 -9999 -9999 -9999 -9999 -9999
-9999 -9999 -9999 -9999 -9999 -9999 -9999 -9999 -9999 -9999 -9999 -9999 -9999 -9999 -9999 -9999 -9999 -9999 -9999 -9999 -9999 -9999 -9999 -9999 -9999 -9999 -9999 -9999 -9999 -9999 -9999 -9999 -9999 -9999 1950 2349 2361 2488 2428 2422 2413 2375 2266 2073 1998 2016 1293 1072 1051 1308 1757 1893 1721 1496 1508 1386 1409 1375 1349 1287 1266 1218 1152 1158 1023 1005 945 877 727 976 699 679 696 637 677 538 523 510 513 508 501 508 497 458 505 510 507 508 514 529 533 535 543 552 566 646 648 637 742 822 1018 1046 837 851 936 1013 733 780 814 718 543 530 618 763 701 761 846 817 1012 1037 1061 1059 1038 1078 1357 1679 1422 1201 1112 1219 1298 1234 1432 955 833 763 820 981 1318 1317 1479 1756 2430 2380 2110 2506 2243 2196 2094 1615 1456 1431 1901 2102 1537 1489 2060 2012 2068 1956 1724 1962 -9999 -9999 -9999 -9999 -9999 -9999 -9999 -9999 -9999 -9999 -9999 -9999 -9999 -9999 -9999 -9999 -9999 -9999 -9999 -9999 -9999 -9999 -9999 -9999 -9999 -9999 -9999 -9999 -9999 -9999 -9999 -9999 -9999 -9999 -9999 -9999 -9999 -9999 -9999 -9999 -9999 -9999 -9999 -9999 -9999 -9999 -9999 -9999 -9999 -9999 -9999 -9999 -9999 -9999 -9999 -9999 -9999 -9999 -9999 -9999 -9999 -9999 -9999 -9999 -9999 -9999 -9999 -9999 -9999 -9999 -9999 -9999 -9999 -9999 -9999 -9999 -9999 -9999
-9999 -9999 -9999 -9999 -9999 -9999 -9999 -9999 -9999 -9999 -9999 -9999 -9999 -9999 -9999 -9999 -9999 -9999 -9999 -9999 -9999 -9999 -9999 -9999 -9999 -9999 -9999 -9999 -9999 -9999 -9999 -9999 -9999 -9999 -9999 -9999 -9999 2735 2666 2385 2348 2141 2081 1928 2008 1821 1105 1051 1384 1646 1946 1758 1552 1463 1433 1386 1386 1356 1285 1268 1289 1205 1168 1147 1075 995 918 899 906 982 812 725 773 720 700 556 479 537 539 481 503 502 495 458 481 473 497 505 507 514 518 528 533 539 541 593 618 544 614 677 753 695 718 681 758 768 663 627 612 527 527 667 685 901 900 993 1001 1125 1175 1231 1223 1191 1154 1171 1366 1747 1574 1196 1112 1289 1255 1023 1023 1026 937 788 763 914 1116 1094 1398 1650 2030 2085 1916 2269 2168 2052 1839 1350 1136 1157 1888 1860 1340 1475 1701 1683 1889 1758 1724 -9999 -9999 -9999 -9999 -9999 -9999 -9999 -9999 -9999 -9999 -9999 -9999 -9999 -9999 -9999 -9999 -9999 -9999 -9999 -9999 -9999 -9999 -9999 -9999 -9999 -9999 -9999 -9999 -9999 -9999 -9999 -9999 -9999 -9999 -9999 -9999 -9999 -9999 -9999 -9999 -9999 -9999 -9999 -9999 -9999 -9999 -9999 -9999 -9999 -9999 -9999 -9999 -9999 -9999 -9999 -9999 -9999 -9999 -9999 -9999 -9999 -9999 -9999 -9999 -9999 -9999 -9999 -9999 -9999 -9999 -9999 -9999 -9999 -9999 -9999 -9999 -9999 -9999 -9999
-9999 -9999 -9999 -9999 -9999 -9999 -9999 -9999 -9999 -9999 -9999 -9999 -9999 -9999 -9999 -9999 -9999 -9999 -9999 -9999 -9999 -9999 -9999 -9999 -9999 -9999 -9999 -9999 -9999 -9999 -9999 -9999 -9999 -9999 -9999 -9999 -9999 2466 2431 2420 2271 2011 1927 1865 1894 1523 1088 1132 1786 1766 1725 1681 1456 1407 1397 1399 1412 1318 1294 1272 1263 1222 1211 1155 1099 1047 1055 1029 964 1087 873 872 826 717 710 581 476 476 476 484 507 504 493 489 458 458 494 497 503 503 511 523 529 530 531 556 577 541 506 563 553 546 568 567 630 645 647 550 527 638 774 904 970 1192 1177 1297 1532 1526 1383 1349 1267 1208 1347 1432 1658 1797 1724 1318 1360 1458 1313 1023 1184 1382 1217 928 702 724 890 1021 1344 1605 1698 1687 1688 1946 2011 1787 1632 1223 954 967 1281 1536 1182 1220 1381 1537 1605 1478 1900 1929 -9999 -9999 -9999 -9999 -9999 -9999 -9999 -9999 -9999 -9999 -9999 -9999 -9999 -9999 -9999 -9999 -9999 -9999 -9999 -9999 -9999 -9999 -9999 -9999 -9999 -9999 -9999 -9999 -9999 -9999 -9999 -9999 -9999 -9999 -9999 -9999 -9999 -9999 -9999 -9999 -9999 -9999 -9999 -9999 -9999 -9999 -9999 -9999 -9999 -9999 -9999 -9999 -9999 -9999 -9999 -9999 -9999 -9999 -9999 -9999 -9999 -9999 -9999 -9999 -9999 -9999 -9999 -9999 -9999 -9999 -9999 -9999 -9999 -9999 -9999 -9999 -9999 -9999
-9999 -9999 -9999 -9999 -9999 -9999 -9999 -9999 -9999 -9999 -9999 -9999 -9999 -9999 -9999 -9999 -9999 -9999 -9999 -9999 -9999 -9999 -9999 -9999 -9999 -9999 -9999 -9999 -9999 -9999 -9999 -9999 -9999 -9999 -9999 -9999 -9999 2238 2322 2290 2172 1954 1791 1715 1628 1302 1272 1567 1766 1628 1552 1542 1389 1365 1357 1328 1342 1291 1291 1294 1291 1229 1209 1178 1129 1125 1062 1096 1008 1037 995 852 728 677 515 511 476 476 476 592 518 489 493 488 458 458 458 493 501 500 505 510 523 523 519 555 565 499 519 501 466 485 511 540 601 599 575 586 504 535 783 1146 1212 1330 1456 1236 1274 1360 1495 1627 1324 1429 1582 1698 1811 1969 1816 1566 1522 1604 1483 1403 1319 1189 1291 1223 1032 646 795 925 1284 1330 1356 1315 1252 1340 1734 1979 1786 1275 1034 855 989 1087 984 1225 1532 1581 1280 1208 1736 1483 -9999 -9999 -9999 -9999 -9999 -9999 -9999 -9999 -9999 -9999 -9999 -9999 -9999 -9999 -9999 -9999 -9999 -9999 -9999 -9999 -9999 -9999 -9999 -9999 -9999 -9999 -9999 -9999 -9999 -9999 -9999 -9999 -9999 -9999 -9999 -9999 -9999 -9999 -9999 -9999 -9999 -9999 -9999 -9999 -9999 -9999 -9999 -9999 -9999 -9999 -9999 -9999 -9999 -9999 -9999 -9999 -9999 -9999 -9999 -9999 -9999 -9999 -9999 -9999 -9999 -9999 -9999 -9999 -9999 -9999 -9999 -9999 -9999 -9999 -9999 -9999 -9999 -9999
-9999 -9999 -9999 -9999 -9999 -9999 -9999 -9999 -9999 -9999 -9999 -9999 -9999 -9999 -9999 -9999 -9999 -9999 -9999 -9999 -9999 -9999 -9999 -9999 -9999 -9999 -9999 -9999 -9999 -9999 -9999 -9999 -9999 -9999 -9999 -9999 2205 2162 2016 2038 1978 2020 1808 1544 1475 1510 1830 1882 1850 1665 1481 1431 1394 1348 1324 1324 1347 1355 1294 1265 1261 1209 1197 1129 1219 1215 1190 1185 950 900 865 833 750 691 717 703 548 474 479 543 532 476 476 497 491 458 458 477 499 497 499 502 512 541 506 523 544 498 510 496 469 461 463 534 572 599 549 517 504 525 705 780 1034 994 1040 1032 1036 1152 1245 1470 1360 1318 1426 1369 1666 1682 1525 1585 1563 1696 1801 1566 1368 1058 987 952 924 731 646 781 959 968 1096 1106 1289 1474 1955 1847 1752 1436 1156 782 821 916 992 1400 1452 1187 955 1231 1351 1590 -9999 -9999 -9999 -9999 -9999 -9999 -9999 -9999 -9999 -9999 -9999 -9999 -9999 -9999 -9999 -9999 -9999 -9999 -9999 -9999 -9999 -9999 -9999 -9999 -9999 -9999 -9999 -9999 -9999 -9999 -9999 -9999 -9999 -9999 -9999 -9999 -9999 -9999 -9999 -9999 -9999 -9999 -9999 -9999 -9999 -9999 -9999 -9999 -9999 -9999 -9999 -9999 -9999 -9999 -9999 -9999 -9999 -9999 -9999 -9999 -9999 -9999 -9999 -9999 -9999 -9999 -9999 -9999 -9999 -9999 -9999 -9999 -9999 -9999 -9999 -9999 -9999 -9999
-9999 -9999 -9999 -9999 -9999 -9999 -9999 -9999 -9999 -9999 -9999 -9999 -9999 -9999 -9999 -9999 -9999 -9999 -9999 -9999 -9999 -9999 -9999 -9999 -9999 -9999 -9999 -9999 -9999 -9999 -9999 -9999 -9999 -9999 -9999 2227 2048 1931 1838 1767 1740 2077 1869 1967 2128 1760 1701 1849 1827 1689 1456 1416 1398 1360 1362 1324 1341 1332 1289 1269 1259 1227 1223 1255 1282 1330 1254 1188 1013 954 775 690 568 521 522 469 458 474 458 458 458 497 466 458 475 458 458 458 483 494 492 495 503 503 499 518 517 498 510 514 487 466 461 538 582 581 517 504 509 512 644 742 695 883 913 896 917 931 987 1102 1091 1118 1065 1256 1361 1323 1276 1442 1343 1558 1693 1789 1464 1152 1026 812 736 792 791 646 668 835 963 1298 1567 1832 2104 1899 1678 1644 1314 767 714 763 830 1168 1291 951 951 1203 1788 -9999 -9999 -9999 -9999 -9999 -9999 -9999 -9999 -9999 -9999 -9999 -9999 -9999 -9999 -9999 -9999 -9999 -9999 -9999 -9999 -9999 -9999 -9999 -9999 -9999 -9999 -9999 -9999 -9999 -9999 -9999 -9999 -9999 -9999 -9999 -9999 -9999 -9999 -9999 -9999 -9999 -9999 -9999 -9999 -9999 -9999 -9999 -9999 -9999 -9999 -9999 -9999 -9999 -9999 -9999 -9999 -9999 -9999 -9999 -9999 -9999 -9999 -9999 -9999 -9999 -9999 -9999 -9999 -9999 -9999 -9999 -9999 -9999 -9999 -9999 -9999 -9999 -9999 -9999
-9999 -9999 -9999 -9999 -9999 -9999 -9999 -9999 -9999 -9999 -9999 -9999 -9999 -9999 -9999 -9999 -9999 -9999 -9999 -9999 -9999 -9999 -9999 -9999 -9999 -9999 -9999 -9999 -9999 -9999 -9999 -9999 -9999 -9999 2352 2226 2115 2181 2148 1984 1708 1708 2041 1971 1797 1843 1585 1607 1680 1574 1429 1411 1349 1344 1324 1311 1354 1345 1262 1249 1246 1230 1253 1309 1305 1389 1294 1270 1199 983 787 702 541 480 469 518 458 458 458 458 458 458 458 458 458 485 458 458 474 492 492 490 497 496 502 508 507 458 455 464 459 446 456 512 547 571 509 493 507 506 589 590 580 672 738 821 840 754 795 838 852 897 957 1007 1073 1030 1270 1191 1149 1312 1464 1507 1387 1314 1200 909 959 967 861 642 732 995 1015 1265 1546 1837 2106 1846 1608 1462 1049 868 699 651 651 915 989 951 1137 1554 1617 1605 -9999 -9999 -9999 -9999 -9999 -9999 -9999 -9999 -9999 -9999 -9999 -9999 -9999 -9999 -9999 -9999 -9999 -9999 -9999 -9999 -9999 -9999 -9999 -9999 -9999 -9999 -9999 -9999 -9999 -9999 -9999 -9999 -9999 -9999 -9999 -9999 -9999 -9999 -9999 -9999 -9999 -9999 -9999 -9999 -9999 -9999 -9999 -9999 -9999 -9999 -9999 -9999 -9999 -9999 -9999 -9999 -9999 -9999 -9999 -9999 -9999 -9999 -9999 -9999 -9999 -9999 -9999 -9999 -9999 -9999 -9999 -9999 -9999 -9999 -9999 -9999 -9999 -9999
-9999 -9999 -9999 -9999 -9999 -9999 -9999 -9999 -9999 -9999 -9999 -9999 -9999 -9999 -9999 -9999 -9999 -9999 -9999 -9999 -9999 -9999 -9999 -9999 -9999 -9999 -9999 -9999 -9999 -9999 -9999 -9999 -9999 -9999 2347 2205 2069 2030 1903 1865 1708 1729 2004 1917 1597 1742 1695 1441 1553 1493 1386 1360 1384 1331 1315 1291 1287 1301 1244 1238 1223 1212 1233 1283 1313 1341 1361 1305 1279 997 916 609 490 469 603 645 535 602 506 498 497 461 485 485 489 458 478 488 458 458 474 489 494 492 505 511 506 501 485 434 436 444 470 505 490 532 537 459 496 497 515 549 523 543 578 608 613 623 633 712 700 751 829 850 867 732 972 921 977 1150 1184 1250 1171 1151 1351 1194 1189 1079 888 642 743 764 868 1146 1485 1770 1988 1983 1849 1601 1131 1005 1056 688 651 890 651 905 1047 1401 1348 1326 -9999 -9999 -9999 -9999 -9999 -9999 -9999 -9999 -9999 -9999 -9999 -9999 -9999 -9999 -9999 -9999 -9999 -9999 -9999 -9999 -9999 -9999 -9999 -9999 -9999 -9999 -9999 -9999 -9999 -9999 -9999 -9999 -9999 -9999 -9999 -9999 -9999 -9999 -9999 -9999 -9999 -9999 -9999 -9999 -9999 -9999 -9999 -9999 -9999 -9999 -9999 -9999 -9999 -9999 -9999 -9999 -9999 -9999 -9999 -9999 -9999 -9999 -9999 -9999 -9999 -9999 -9999 -9999 -9999 -9999 -9999 -9999 -9999 -9999 -9999 -9999 -9999 -9999
-9999 -9999 -9999 -9999 -9999 -9999 -9999 -9999 -9999 -9999 -9999 -9999 -9999 -9999 -9999 -9999 -9999 -9999 -9999 -9999 -9999 -9999 -9999 -9999 -9999 -9999 -9999 -9999 -9999 -9999 1982 2011 2143 -9999 2330 2320 2151 2083 1780 1711 1720 1708 1596 1672 1417 1605 1715 1496 1398 1476 1480 1360 1442 1450 1454 1361 1276 1276 1262 1248 1232 1212 1223 1238 1283 1312 1274 1298 1258 1060 907 611 488 469 556 809 758 750 741 721 722 736 632 690 652 539 587 516 458 458 458 472 454 454 486 498 503 497 490 488 434 463 504 489 486 538 511 451 485 486 547 498 477 470 486 494 512 565 580 632 621 699 703 813 691 692 852 800 949 1067 916 908 900 1035 1321 1348 1171 903 795 648 642 757 881 1134 1246 1660 1944 1837 1887 1767 1453 1346 1397 1241 746 651 651 709 907 1264 1271 1443 -9999 -9999 -9999 -9999 -9999 -9999 -9999 -9999 -9999 -9999 -9999 -9999 -9999 -9999 -9999 -9999 -9999 -9999 -9999 -9999 -9999 -9999 -9999 -9999 -9999 -9999 -9999 -9999 -9999 -9999 -9999 -9999 -9999 -9999 -9999 -9999 -9999 -9999 -9999 -9999 -9999 -9999 -9999 -9999 -9999 -9999 -9999 -9999 -9999 -9999 -9999 -9999 -9999 -9999 -9999 -9999 -9999 -9999 -9999 -9999 -9999 -9999 -9999 -9999 -9999 -9999 -9999 -9999 -9999 -9999 -9999 -9999 -9999 -9999 -9999 -9999 -9999 -9999
-9999 -9999 -9999 -9999 -9999 -9999 -9999 -9999 -9999 -9999 -9999 -9999 -9999 -9999 -9999 -9999 -9999 -9999 -9999 -9999 -9999 -9999 -9999 -9999 -9999 -9999 -9999 -9999 2142 1919 1919 2180 2196 2276 2306 2149 2149 1914 1934 1907 1603 1500 1281 1269 1184 1362 1699 1485 1383 1440 1441 1396 1464 1480 1487 1445 1307 1311 1263 1271 1232 1212 1212 1212 1244 1304 1274 1301 1318 952 850 685 560 510 834 927 1027 996 863 810 782 773 721 767 668 565 562 559 505 486 458 458 454 454 460 464 467 469 488 487 433 470 463 467 480 526 495 451 479 480 544 488 479 470 474 455 473 508 547 616 558 623 599 582 619 619 664 774 748 843 643 739 957 1135 1175 1145 1084 1232 1082 905 642 757 843 1034 1100 1396 1700 1708 1925 1871 1860 1821 1414 1168 764 674 651 651 695 1083 1253 1521 1521 1516 -9999 -9999 -9999 -9999 -9999 -9999 -9999 -9999 -9999 -9999 -9999 -9999 -9999 -9999 -9999 -9999 -9999 -9999 -9999 -9999 -9999 -9999 -9999 -9999 -9999 -9999 -9999 -9999 -9999 -9999 -9999 -9999 -9999 -9999 -9999 -9999 -9999 -9999 -9999 -9999 -9999 -9999 -9999 -9999 -9999 -9999 -9999 -9999 -9999 -9999 -9999 -9999 -9999 -9999 -9999 -9999 -9999 -9999 -9999 -9999 -9999 -9999 -9999 -9999 -9999 -9999 -9999 -9999 -9999 -9999 -9999 -9999 -9999 -9999 -9999 -9999
-9999 -9999 -9999 -9999 -9999 -9999 -9999 -9999 -9999 -9999 -9999 -9999 -9999 -9999 -9999 -9999 -9999 -9999 -9999 -9999 -9999 -9999 -9999 -9999 -9999 -9999 2105 2150 1999 1919 1956 2143 2300 2156 2164 2311 2155 1796 1839 1786 1663 1623 1303 1219 1174 1335 1491 1491 1286 1386 1388 1352 1449 1473 1481 1482 1381 1343 1268 1267 1219 1212 1232 1245 1300 1256 1229 1260 1292 1072 826 665 595 592 746 1107 1103 1044 1027 967 793 816 793 851 718 604 543 539 512 499 512 530 517 454 454 433 458 464 463 469 433 509 463 476 468 515 496 451 472 513 543 532 451 451 470 447 469 476 565 544 522 556 518 563 572 565 576 602 633 626 641 943 1131 1242 1120 942 927 694 912 998 642 750 915 989 1086 1324 1622 1891 1856 1925 1644 1522 1060 923 720 694 651 651 699 1128 1401 1547 1561 1575 -9999 -9999 -9999 -9999 -9999 -9999 -9999 -9999 -9999 -9999 -9999 -9999 -9999 -9999 -9999 -9999 -9999 -9999 -9999 -9999 -9999 -9999 -9999 -9999 -9999 -9999 -9999 -9999 -9999 -9999 -9999 -9999 -9999 -9999 -9999 -9999 -9999 -9999 -9999 -9999 -9999 -9999 -9999 -9999 -9999 -9999 -9999 -9999 -9999 -9999 -9999 -9999 -9999 -9999 -9999 -9999 -9999 -9999 -9999 -9999 -9999 -9999 -9999 -9999 -9999 -9999 -9999 -9999 -9999 -9999 -9999 -9999 -9999 -9999 -9999 -9999
-9999 -9999 -9999 -9999 -9999 -9999 -9999 -9999 -9999 -9999 -9999 -9999 -9999 -9999 -9999 -9999 -9999 -9999 -9999 -9999 -9999 -9999 -9999 -9999 -9999 2120 2014 2044 1826 1861 2022 2157 2199 2087 2023 1959 1630 1845 1858 1591 1798 1495 1213 1066 834 960 1274 1328 1286 1283 1312 1364 1415 1397 1374 1380 1374 1359 1358 1257 1245 1212 1358 1271 1229 1191 1234 1164 1183 1137 847 682 592 619 709 1077 1071 1057 1046 1028 984 950 825 812 756 750 681 512 617 523 489 489 500 487 540 444 433 433 468 458 433 487 490 466 472 483 488 451 467 530 519 519 512 474 451 447 459 476 495 500 509 497 483 510 545 539 544 539 544 516 598 760 905 1032 1062 1021 757 589 745 691 581 614 883 1249 1380 1682 1785 1799 1666 1813 1652 1134 883 830 658 651 651 651 678 860 1404 1529 1581 1593 1514 -9999 -9999 -9999 -9999 -9999 -9999 -9999 -9999 -9999 -9999 -9999 -9999 -9999 -9999 -9999 -9999 -9999 -9999 -9999 -9999 -9999 -9999 -9999 -9999 -9999 -9999 -9999 -9999 -9999 -9999 -9999 -9999 -9999 -9999 -9999 -9999 -9999 -9999 -9999 -9999 -9999 -9999 -9999 -9999 -9999 -9999 -9999 -9999 -9999 -9999 -9999 -9999 -9999 -9999 -9999 -9999 -9999 -9999 -9999 -9999 -9999 -9999 -9999 -9999 -9999 -9999 -9999 -9999 -9999 -9999 -9999 -9999 -9999 -9999 -9999
-9999 -9999 -9999 -9999 -9999 -9999 -9999 -9999 -9999 -9999 -9999 -9999 -9999 -9999 -9999 -9999 -9999 -9999 -9999 -9999 -9999 -9999 -9999 -9999 2015 2026 2012 1942 1820 1780 1962 2089 2136 1942 1794 1543 1542 1632 1851 1587 1689 1502 1231 1105 725 740 921 1147 1228 1252 1231 1313 1355 1375 1374 1451 1460 1303 1288 1286 1196 1135 1242 1178 1088 1096 1137 1099 1072 1011 1003 749 592 592 715 1153 1109 1083 1032 1055 993 992 996 906 841 878 865 937 882 692 660 541 487 497 459 524 448 433 433 433 433 500 453 426 453 476 471 451 460 506 519 521 519 500 460 447 450 471 461 501 512 484 470 470 532 518 527 522 507 513 560 602 633 750 955 608 559 559 561 581 628 668 880 1249 1419 1678 1814 1520 1476 1501 1019 861 786 732 741 729 742 652 651 806 1273 1338 1598 1579 1554 -9999 -9999 -9999 -9999 -9999 -9999 -9999 -9999 -9999 -9999 -9999 -9999 -9999 -9999 -9999 -9999 -9999 -9999 -9999 -9999 -9999 -9999 -9999 -9999 -9999 -9999 -9999 -9999 -9999 -9999 -9999 -9999 -9999 -9999 -9999 -9999 -9999 -9999 -9999 -9999 -9999 -9999 -9999 -9999 -9999 -9999 -9999 -9999 -9999 -9999 -9999 -9999 -9999 -9999 -9999 -9999 -9999 -9999 -9999 -9999 -9999 -9999 -9999 -9999 -9999 -9999 -9999 -9999 -9999 -9999 -9999 -9999 -9999 -9999 -9999
-9999 -9999 -9999 -9999 -9999 -9999 -9999 -9999 -9999 -9999 -9999 -9999 -9999 -9999 -9999 -9999 -9999 -9999 -9999 -9999 -9999 -9999 -9999 -9999 1999 1904 1938 1836 1779 1764 2034 1970 2017 2010 1926 1695 1541 1563 1627 1540 1556 1596 1534 1296 1027 725 761 1037 1152 1169 1188 1129 1269 1399 1402 1324 1344 1290 1189 1218 1155 1063 1131 1117 1017 997 1036 1040 1132 1080 1040 716 592 592 727 1115 1133 1125 1123 1107 992 992 1021 979 939 914 1023 1058 1023 900 771 666 598 615 593 534 509 501 486 433 433 433 411 419 455 473 468 458 451 512 513 530 516 504 482 431 454 472 487 461 484 474 472 458 511 496 514 488 485 479 479 489 509 559 559 559 579 658 782 702 669 754 1008 1184 1517 1710 1757 1516 1318 1153 1100 974 914 938 914 978 980 807 567 749 914 1080 1407 1491 1531 -9999 -9999 -9999 -9999 -9999 -9999 -9999 -9999 -9999 -9999 -9999 -9999 -9999 -9999 -9999 -9999 -9999 -9999 -9999 -9999 -9999 -9999 -9999 -9999 -9999 -9999 -9999 -9999 -9999 -9999 -9999 -9999 -9999 -9999 -9999 -9999 -9999 -9999 -9999 -9999 -9999 -9999 -9999 -9999 -9999 -9999 -9999 -9999 -9999 -9999 -9999 -9999 -9999 -9999 -9999 -9999 -9999 -9999 -9999 -9999 -9999 -9999 -9999 -9999 -9999 -9999 -9999 -9999 -9999 -9999 -9999 -9999 -9999 -9999 -9999
-9999 -9999 -9999 -9999 -9999 -9999 -9999 -9999 -9999 -9999 -9999 -9999 -9999 -9999 -9999 -9999 -9999 -9999 -9999 -9999 -9999 -9999 -9999 -9999 2017 1800 1758 1702 1724 1760 1959 1870 1808 1786 1671 1702 1541 1600 1565 1428 1326 1516 1466 1368 1190 713 771 1038 1119 1141 1016 1083 1253 1332 1396 1308 1263 1055 992 1057 1073 1057 1182 1047 1000 980 1003 941 1070 1093 1007 968 858 592 730 1134 1154 1168 1152 1101 1077 1039 1084 1054 1064 1073 1074 1123 1071 1056 946 620 609 577 553 483 483 500 494 434 433 475 411 411 470 473 449 450 448 491 469 522 495 499 501 435 429 431 461 473 463 453 447 489 480 482 495 475 468 462 528 655 684 693 745 761 769 806 908 892 807 942 1162 1332 1485 1551 1512 1504 1556 1191 1122 1147 1135 1119 1083 1056 890 796 567 622 883 872 1051 1089 1459 1492 -9999 -9999 -9999 -9999 -9999 -9999 -9999 -9999 -9999 -9999 -9999 -9999 -9999 -9999 -9999 -9999 -9999 -9999 -9999 -9999 -9999 -9999 -9999 -9999 -9999 -9999 -9999 -9999 -9999 -9999 -9999 -9999 -9999 -9999 -9999 -9999 -9999 -9999 -9999 -9999 -9999 -9999 -9999 -9999 -9999 -9999 -9999 -9999 -9999 -9999 -9999 -9999 -9999 -9999 -9999 -9999 -9999 -9999 -9999 -9999 -9999 -9999 -9999 -9999 -9999 -9999 -9999 -9999 -9999 -9999 -9999 -9999 -9999 -9999
-9999 -9999 -9999 -9999 -9999 -9999 -9999 -9999 -9999 -9999 -9999 -9999 -9999 -9999 -9999 -9999 -9999 -9999 -9999 -9999 -9999 -9999 -9999 -9999 1897 1856 1763 1585 1688 1711 2000 1801 1767 1766 1596 1586 1587 1541 1557 1261 1179 1338 1338 1222 1115 698 904 1052 1087 1072 935 1084 1183 1219 1323 1349 1007 934 878 1016 1024 1051 1097 1116 1064 972 958 983 924 880 720 656 592 592 870 1228 1218 1192 1217 1133 1162 1081 1102 1149 1127 1096 1122 1143 1137 1099 1086 981 744 685 563 500 497 454 454 433 488 489 411 411 464 467 468 446 436 444 461 503 491 482 500 466 447 417 443 452 444 442 457 455 468 479 479 466 459 453 472 536 525 588 612 673 691 722 748 880 907 911 1079 1131 1285 1416 1508 1460 1307 1077 886 1060 1043 1125 998 794 793 741 567 567 633 682 970 970 1239 1354 1386 1223 1193 1078 1022 -9999 -9999 -9999 -9999 -9999 -9999 -9999 -9999 -9999 -9999 -9999 -9999 -9999 -9999 -9999 -9999 -9999 -9999 -9999 -9999 -9999 -9999 -9999 -9999 -9999 -9999 -9999 -9999 -9999 -9999 -9999 -9999 -9999 -9999 -9999 -9999 -9999 -9999 -9999 -9999 -9999 -9999 -9999 -9999 -9999 -9999 -9999 -9999 -9999 -9999 -9999 -9999 -9999 -9999 -9999 -9999 -9999 -9999 -9999 -9999 -9999 -9999 -9999 -9999 -9999 -9999 -9999 -9999 -9999
-9999 -9999 -9999 -9999 -9999 -9999 -9999 -9999 -9999 -9999 -9999 -9999 -9999 -9999 -9999 -9999 -9999 -9999 -9999 -9999 -9999 -9999 -9999 -9999 -9999 1812 1798 1570 1544 1601 1824 1777 1701 1686 1659 1601 1527 1431 1407 1240 1179 1195 1080 826 826 698 746 1025 1048 1007 877 1017 1131 1151 1127 1182 855 777 865 943 1009 1024 1019 1038 1069 955 949 921 814 592 592 592 594 645 1022 1221 1253 1241 1233 1189 1196 1183 1193 1208 1199 1207 1143 1161 1134 1093 1098 1071 925 885 712 497 578 493 503 482 427 464 464 411 421 470 467 436 441 439 436 444 486 465 454 446 443 414 431 454 439 434 445 448 473 469 471 466 448 450 452 492 516 555 612 684 695 696 692 728 666 710 977 1138 1188 1369 1275 1197 1011 961 817 822 850 870 926 844 782 603 567 672 1057 1167 1114 1237 1301 1253 1272 1243 1142 872 989 1152 -9999 -9999 -9999 -9999 -9999 -9999 -9999 -9999 -9999 -9999 -9999 -9999 -9999 -9999 -9999 -9999 -9999 -9999 -9999 -9999 -9999 -9999 -9999 -9999 -9999 -9999 -9999 -9999 -9999 -9999 -9999 -9999 -9999 -9999 -9999 -9999 -9999 -9999 -9999 -9999 -9999 -9999 -9999 -9999 -9999 -9999 -9999 -9999 -9999 -9999 -9999 -9999 -9999 -9999 -9999 -9999 -9999 -9999 -9999 -9999 -9999 -9999 -9999 -9999 -9999 -9999 -9999 -9999
-9999 -9999 -9999 -9999 -9999 -9999 -9999 -9999 -9999 -9999 -9999 -9999 -9999 -9999 -9999 -9999 -9999 -9999 -9999 -9999 -9999 -9999 -9999 -9999 -9999 1812 1742 1733 1589 1499 1539 1677 1669 1745 1633 1667 1634 1585 1542 1568 1237 970 904 995 864 718 633 982 1027 986 689 716 825 885 909 946 807 732 797 931 982 1006 982 819 764 832 959 939 808 592 757 867 871 961 1117 1127 1179 1214 1235 1213 1287 1298 1263 1243 1266 1252 1183 1155 1169 1186 1171 1135 1078 1007 766 592 592 528 507 482 487 427 411 433 411 478 461 436 439 439 436 430 469 436 442 428 425 411 417 449 420 431 439 466 442 470 467 459 444 451 448 458 509 500 502 678 678 676 706 673 621 823 904 957 1122 1210 1063 996 868 795 684 624 715 703 807 862 902 775 524 730 816 918 881 1007 1255 1233 1166 1074 826 774 1092 1272 -9999 -9999 -9999 -9999 -9999 -9999 -9999 -9999 -9999 -9999 -9999 -9999 -9999 -9999 -9999 -9999 -9999 -9999 -9999 -9999 -9999 -9999 -9999 -9999 -9999 -9999 -9999 -9999 -9999 -9999 -9999 -9999 -9999 -9999 -9999 -9999 -9999 -9999 -9999 -9999 -9999 -9999 -9999 -9999 -9999 -9999 -9999 -9999 -9999 -9999 -9999 -9999 -9999 -9999 -9999 -9999 -9999 -9999 -9999 -9999 -9999 -9999 -9999 -9999 -9999 -9999 -9999 -9999
-9999 -9999 -9999 -9999 -9999 -9999 -9999 -9999 -9999 -9999 -9999 -9999 -9999 -9999 -9999 -9999 -9999 -9999 -9999 -9999 -9999 -9999 -9999 1825 1809 1818 1659 1646 1605 1467 1436 1504 1738 1737 1514 1623 1686 1643 1516 1564 1476 1298 1179 1104 1056 669 627 834 931 863 733 689 654 657 685 698 691 639 696 782 896 930 742 616 592 686 842 911 883 592 912 1035 1036 1060 1006 1048 1144 1139 1183 1232 1316 1322 1318 1283 1289 1254 1284 1238 1183 1178 1241 1201 918 867 615 592 653 556 515 496 507 499 493 436 411 452 460 431 431 436 441 433 417 429 458 455 438 411 411 419 415 437 438 449 436 456 455 458 437 442 442 444 480 466 505 491 517 629 673 641 615 699 741 825 973 1013 991 929 974 935 863 726 582 639 655 649 643 489 543 652 657 753 827 917 941 912 939 913 733 867 1050 1153 -9999 -9999 -9999 -9999 -9999 -9999 -9999 -9999 -9999 -9999 -9999 -9999 -9999 -9999 -9999 -9999 -9999 -9999 -9999 -9999 -9999 -9999 -9999 -9999 -9999 -9999 -9999 -9999 -9999 -9999 -9999 -9999 -9999 -9999 -9999 -9999 -9999 -9999 -9999 -9999 -9999 -9999 -9999 -9999 -9999 -9999 -9999 -9999 -9999 -9999 -9999 -9999 -9999 -9999 -9999 -9999 -9999 -9999 -9999 -9999 -9999 -9999 -9999 -9999 -9999 -9999 -9999 -9999
-9999 -9999 -9999 -9999 -9999 -9999 -9999 -9999 -9999 -9999 -9999 -9999 -9999 -9999 -9999 -9999 -9999 -9999 -9999 -9999 -9999 -9999 -9999 1773 1636 1625 1649 1596 1641 1625 1529 1436 1333 1464 1563 1659 1711 1565 1462 1467 1345 1261 1212 1045 989 702 627 728 812 798 601 592 592 592 595 596 604 639 639 769 896 592 592 592 592 592 592 749 683 592 714 1081 1127 1125 1107 1105 1053 1108 1098 1118 1272 1337 1307 1320 1300 1277 1287 1246 1240 1202 1230 1253 989 792 875 896 661 578 541 502 477 480 483 479 444 411 411 411 411 427 418 413 410 411 447 444 435 425 411 412 414 425 432 437 438 435 432 437 441 438 438 437 464 466 521 514 465 506 658 627 534 683 746 726 851 944 950 817 858 823 746 794 616 542 516 514 489 512 547 528 528 538 557 689 702 680 698 698 824 937 992 1100 905 -9999 -9999 -9999 -9999 -9999 -9999 -9999 -9999 -9999 -9999 -9999 -9999 -9999 -9999 -9999 -9999 -9999 -9999 -9999 -9999 -9999 -9999 -9999 -9999 -9999 -9999 -9999 -9999 -9999 -9999 -9999 -9999 -9999 -9999 -9999 -9999 -9999 -9999 -9999 -9999 -9999 -9999 -9999 -9999 -9999 -9999 -9999 -9999 -9999 -9999 -9999 -9999 -9999 -9999 -9999 -9999 -9999 -9999 -9999 -9999 -9999 -9999 -9999 -9999 -9999 -9999 -9999
-9999 -9999 -9999 -9999 -9999 -9999 -9999 -9999 -9999 -9999 -9999 -9999 -9999 -9999 -9999 -9999 -9999 -9999 -9999 -9999 -9999 -9999 1770 1766 1755 1705 1625 1625 1545 1531 1535 1381 1023 986 1111 1440 1370 1397 1392 1311 1205 1143 629 626 617 596 592 592 592 592 592 592 600 611 592 620 787 694 676 686 592 592 592 592 592 592 592 592 592 721 832 1118 1165 1161 1164 1139 1111 1095 1112 1105 1205 1260 1335 1334 1329 1347 1313 1263 1266 1235 1204 1234 1129 1113 1085 1005 687 754 750 658 498 477 450 437 437 411 411 469 462 459 456 405 408 405 451 446 437 430 411 406 412 411 422 426 422 423 427 432 435 432 437 431 429 429 451 441 419 442 627 591 534 707 724 704 693 864 906 922 720 734 701 658 654 561 506 493 471 457 474 622 668 713 662 568 584 695 752 768 706 741 843 805 962 1012 1008 1071 -9999 -9999 -9999 -9999 -9999 -9999 -9999 -9999 -9999 -9999 -9999 -9999 -9999 -9999 -9999 -9999 -9999 -9999 -9999 -9999 -9999 -9999 -9999 -9999 -9999 -9999 -9999 -9999 -9999 -9999 -9999 -9999 -9999 -9999 -9999 -9999 -9999 -9999 -9999 -9999 -9999 -9999 -9999 -9999 -9999 -9999 -9999 -9999 -9999 -9999 -9999 -9999 -9999 -9999 -9999 -9999 -9999 -9999 -9999 -9999 -9999 -9999 -9999 -9999
-9999 -9999 -9999 -9999 -9999 -9999 -9999 -9999 -9999 -9999 -9999 -9999 -9999 -9999 -9999 -9999 -9999 -9999 -9999 -9999 -9999 -9999 1865 1808 1789 1717 1622 1567 1510 1440 1498 1296 862 667 645 775 927 1045 1029 893 592 592 592 592 592 592 592 592 592 600 670 937 804 682 656 705 839 700 592 592 592 657 791 720 687 687 592 592 592 848 971 1145 1128 1217 1232 1276 1153 1167 1095 1146 1161 1192 1201 1254 1298 1388 1353 1312 1305 1254 1234 1203 1212 1114 1092 1054 738 709 757 790 574 499 500 479 491 411 411 411 411 411 458 447 403 403 445 428 430 426 409 406 408 413 416 423 415 423 424 430 427 431 427 425 422 422 418 417 411 413 446 418 425 429 419 531 622 711 694 707 690 700 559 546 541 507 513 474 461 423 446 525 534 608 720 813 835 776 817 873 850 902 760 724 882 919 841 880 920 983 974 1100 -9999 -9999 -9999 -9999 -9999 -9999 -9999 -9999 -9999 -9999 -9999 -9999 -9999 -9999 -9999 -9999 -9999 -9999 -9999 -9999 -9999 -9999 -9999 -9999 -9999 -9999 -9999 -9999 -9999 -9999 -9999 -9999 -9999 -9999 -9999 -9999 -9999 -9999 -9999 -9999 -9999 -9999 -9999 -9999 -9999 -9999 -9999 -9999 -9999 -9999 -9999 -9999 -9999 -9999 -9999 -9999 -9999 -9999 -9999 -9999
-9999 -9999 -9999 -9999 -9999 -9999 -9999 -9999 -9999 -9999 -9999 -9999 -9999 -9999 -9999 -9999 -9999 -9999 -9999 -9999 -9999 -9999 1798 1709 1581 1559 1539 1531 1501 1414 1384 1275 1020 716 615 592 592 592 592 592 592 592 592 592 592 592 592 609 651 652 724 831 787 625 610 691 592 592 607 621 750 797 821 811 687 807 831 783 790 903 980 1146 1203 1247 1258 1259 1194 1247 1133 1187 1130 1064 1073 1148 1299 1405 1366 1321 1289 1236 1213 1188 1188 1203 1095 1047 723 600 624 631 577 517 479 532 548 469 459 466 473 439 411 403 432 403 403 407 424 421 410 412 405 407 411 399 415 417 421 433 427 423 426 418 416 421 413 410 403 400 402 411 411 408 396 410 438 568 621 617 637 651 631 595 448 461 461 448 428 413 426 475 472 443 562 893 909 767 788 849 812 740 726 704 773 727 698 745 874 817 813 876 1061 1054 1048 1116 1186 1261 1286 1303 -9999 -9999 -9999 -9999 -9999 -9999 -9999 -9999 -9999 -9999 -9999 -9999 -9999 -9999 -9999 -9999 -9999 -9999 -9999 -9999 -9999 -9999 -9999 -9999 -9999 -9999 -9999 -9999 -9999 -9999 -9999 -9999 -9999 -9999 -9999 -9999 -9999 -9999 -9999 -9999 -9999 -9999 -9999 -9999 -9999 -9999 -9999 -9999 -9999 -9999 -9999 -9999
-9999 -9999 -9999 -9999 -9999 -9999 -9999 -9999 -9999 -9999 -9999 -9999 -9999 -9999 -9999 -9999 -9999 -9999 -9999 -9999 -9999 -9999 -9999 -9999 1806 1650 1582 1607 1492 1486 1378 1337 1124 691 645 592 592 592 592 592 592 604 592 592 592 592 592 592 632 696 785 607 592 592 592 592 592 592 592 627 693 701 687 687 700 874 938 934 945 936 949 1192 1242 1278 1288 1343 1299 1260 1234 1240 1152 1179 1064 949 1057 1160 1328 1353 1301 1224 1247 1219 1212 1259 1129 1022 652 591 591 522 522 479 549 602 652 522 465 424 416 421 433 431 418 409 405 394 411 411 412 421 418 394 399 406 410 414 416 426 422 420 417 416 418 411 417 411 402 395 394 403 400 396 394 440 481 464 473 504 511 543 524 506 455 428 441 449 441 408 419 430 423 442 520 637 769 812 756 689 723 626 652 603 634 622 699 768 825 712 795 877 873 911 878 1094 1110 1195 1211 1202 1203 -9999 -9999 -9999 -9999 -9999 -9999 -9999 -9999 -9999 -9999 -9999 -9999 -9999 -9999 -9999 -9999 -9999 -9999 -9999 -9999 -9999 -9999 -9999 -9999 -9999 -9999 -9999 -9999 -9999 -9999 -9999 -9999 -9999 -9999 -9999 -9999 -9999 -9999 -9999 -9999 -9999 -9999 -9999 -9999 -9999 -9999 -9999 -9999 -9999 -9999 -9999
-9999 -9999 -9999 -9999 -9999 -9999 -9999 -9999 -9999 -9999 -9999 -9999 -9999 -9999 -9999 -9999 -9999 -9999 -9999 -9999 -9999 -9999 -9999 -9999 -9999 1734 1492 1492 1519 1529 1514 1492 1252 961 843 594 682 671 678 700 739 724 721 657 654 652 592 592 592 635 657 592 592 592 592 592 592 592 592 603 655 709 838 765 848 920 962 1030 1092 1087 1059 1149 1149 1317 1295 1307 1338 1234 1234 1246 1156 1170 1061 1012 834 888 1083 1163 1031 1193 1195 1251 1183 1211 1234 898 721 576 522 534 639 524 591 596 533 491 457 446 449 416 416 416 395 394 408 394 407 405 403 401 396 394 402 403 407 408 420 430 415 415 420 422 420 406 406 418 399 402 394 394 394 394 394 394 404 433 447 442 444 453 455 415 394 406 426 423 447 408 414 418 437 421 436 450 564 776 532 528 569 529 523 618 650 618 765 766 706 642 877 940 878 808 815 954 982 1049 1078 1084 1091 -9999 -9999 -9999 -9999 -9999 -9999 -9999 -9999 -9999 -9999 -9999 -9999 -9999 -9999 -9999 -9999 -9999 -9999 -9999 -9999 -9999 -9999 -9999 -9999 -9999 -9999 -9999 -9999 -9999 -9999 -9999 -9999 -9999 -9999 -9999 -9999 -9999 -9999 -9999 -9999 -9999 -9999 -9999 -9999 -9999 -9999 -9999 -9999 -9999 -9999 -9999
-9999 -9999 -9999 -9999 -9999 -9999 -9999 -9999 -9999 -9999 -9999 -9999 -9999 -9999 -9999 -9999 -9999 -9999 -9999 -9999 -9999 -9999 -9999 -9999 -9999 -9999 -9999 1638 1572 1519 1492 1583 1564 1288 978 922 973 1074 1039 1096 1009 1094 974 913 758 725 598 592 592 592 592 592 592 592 592 592 592 592 599 651 626 773 909 924 967 1055 1143 1155 1189 1191 1259 1234 1231 1269 1356 1383 1378 1346 1289 1275 1156 1163 1223 1098 849 762 686 678 842 890 987 1102 1193 1145 1137 851 685 549 530 562 654 684 704 619 521 497 476 450 433 470 508 532 467 394 394 405 394 404 402 400 394 395 397 399 410 415 419 414 406 410 409 424 419 414 398 396 394 394 394 394 394 394 394 394 394 394 409 429 405 418 394 394 394 403 394 418 446 419 408 424 447 421 457 453 454 478 453 456 463 489 510 545 547 638 510 718 583 705 862 758 932 964 615 774 881 894 923 952 910 -9999 -9999 -9999 -9999 -9999 -9999 -9999 -9999 -9999 -9999 -9999 -9999 -9999 -9999 -9999 -9999 -9999 -9999 -9999 -9999 -9999 -9999 -9999 -9999 -9999 -9999 -9999 -9999 -9999 -9999 -9999 -9999 -9999 -9999 -9999 -9999 -9999 -9999 -9999 -9999 -9999 -9999 -9999 -9999 -9999 -9999 -9999 -9999 -9999 -9999 -9999
-9999 -9999 -9999 -9999 -9999 -9999 -9999 -9999 -9999 -9999 -9999 -9999 -9999 -9999 -9999 -9999 -9999 -9999 -9999 -9999 -9999 -9999 -9999 -9999 -9999 -9999 -9999 -9999 1755 1665 1581 1623 1552 1281 1098 1192 1068 1397 1423 1394 1360 1353 1232 1074 847 742 659 629 592 592 592 634 656 593 592 592 620 663 700 701 696 864 926 943 1001 1084 1228 1258 1335 1339 1338 1320 1254 1231 1330 1460 1516 1425 1381 1342 1311 1174 1267 1126 918 902 832 745 641 696 763 840 921 1170 1153 863 718 648 638 664 751 753 789 730 580 593 512 484 486 482 609 617 521 469 394 399 394 394 394 394 394 394 396 395 402 412 400 403 405 401 402 414 415 400 403 400 394 394 394 394 394 394 394 394 394 398 400 394 394 394 394 394 394 394 395 402 424 427 397 407 421 422 464 453 453 453 461 493 471 489 506 488 497 536 495 574 536 654 537 567 662 708 674 588 682 689 834 796 768 -9999 -9999 -9999 -9999 -9999 -9999 -9999 -9999 -9999 -9999 -9999 -9999 -9999 -9999 -9999 -9999 -9999 -9999 -9999 -9999 -9999 -9999 -9999 -9999 -9999 -9999 -9999 -9999 -9999 -9999 -9999 -9999 -9999 -9999 -9999 -9999 -9999 -9999 -9999 -9999 -9999 -9999 -9999 -9999 -9999 -9999 -9999 -9999 -9999 -9999 -9999
-9999 -9999 -9999 -9999 -9999 -9999 -9999 -9999 -9999 -9999 -9999 -9999 -9999 -9999 -9999 -9999 -9999 -9999 -9999 -9999 -9999 -9999 -9999 -9999 -9999 -9999 -9999 -9999 1806 1703 1746 1638 1518 1413 1320 1424 1118 1424 1421 1503 1546 1382 1212 990 894 840 832 770 655 611 825 803 647 614 630 689 722 782 771 793 857 993 993 1030 1082 1125 1312 1367 1405 1412 1362 1381 1370 1360 1368 1476 1569 1487 1444 1421 1382 1257 1242 1237 891 849 912 856 634 580 608 664 794 882 886 818 752 747 676 652 726 873 889 843 630 618 569 568 541 493 755 802 627 544 438 509 465 491 394 394 394 394 394 394 394 399 397 401 398 399 399 406 400 406 406 396 394 394 394 394 394 394 394 394 394 394 394 394 394 394 394 398 401 469 426 441 432 433 403 394 394 394 488 453 453 457 453 453 453 472 476 467 478 495 512 522 487 521 528 512 533 547 538 565 590 592 672 651 620 -9999 -9999 -9999 -9999 -9999 -9999 -9999 -9999 -9999 -9999 -9999 -9999 -9999 -9999 -9999 -9999 -9999 -9999 -9999 -9999 -9999 -9999 -9999 -9999 -9999 -9999 -9999 -9999 -9999 -9999 -9999 -9999 -9999 -9999 -9999 -9999 -9999 -9999 -9999 -9999 -9999 -9999 -9999 -9999 -9999 -9999 -9999 -9999 -9999 -9999 -9999
-9999 -9999 -9999 -9999 -9999 -9999 -9999 -9999 -9999 -9999 -9999 -9999 -9999 -9999 -9999 -9999 -9999 -9999 -9999 -9999 -9999 -9999 -9999 -9999 -9999 -9999 -9999 -9999 -9999 -9999 1769 1691 1812 1757 1566 1387 1266 1395 1454 1574 1536 1241 1136 1068 931 1010 1009 976 1012 1137 958 834 827 829 857 838 939 943 933 1027 1050 1171 1179 1165 1157 1246 1415 1328 1390 1390 1399 1440 1397 1420 1431 1410 1469 1552 1500 1511 1461 1317 1120 844 795 762 865 895 786 682 580 585 868 769 674 673 715 606 631 820 827 880 875 860 776 732 639 636 610 591 777 781 592 522 481 411 421 400 394 394 394 394 394 394 395 405 399 394 394 394 394 402 394 394 394 396 394 394 394 394 394 394 394 394 394 394 394 394 394 394 419 394 394 425 409 396 453 434 418 394 394 598 653 633 584 573 597 583 458 453 453 453 484 505 489 480 496 502 486 484 496 504 518 525 541 548 571 620 705 -9999 -9999 -9999 -9999 -9999 -9999 -9999 -9999 -9999 -9999 -9999 -9999 -9999 -9999 -9999 -9999 -9999 -9999 -9999 -9999 -9999 -9999 -9999 -9999 -9999 -9999 -9999 -9999 -9999 -9999 -9999 -9999 -9999 -9999 -9999 -9999 -9999 -9999 -9999 -9999 -9999 -9999 -9999 -9999 -9999 -9999 -9999 -9999 -9999 -9999 -9999
-9999 -9999 -9999 -9999 -9999 -9999 -9999 -9999 -9999 -9999 -9999 -9999 -9999 -9999 -9999 -9999 -9999 -9999 -9999 -9999 -9999 -9999 -9999 -9999 -9999 -9999 -9999 -9999 -9999 -9999 -9999 -9999 1685 1551 1496 1333 1350 1339 1476 1645 1514 1428 1213 1144 1018 1124 1102 1250 1156 1294 993 945 1092 1106 1121 1069 1145 1113 1155 1142 1159 1372 1380 1373 1452 1282 1335 1287 1265 1272 1373 1413 1501 1499 1489 1536 1583 1486 1507 1539 1572 1249 1086 857 714 737 711 759 749 621 580 580 798 855 633 561 585 598 786 695 705 938 848 685 758 716 823 721 672 719 594 587 537 471 419 397 406 395 394 394 394 394 394 394 394 394 399 399 394 399 400 394 394 394 394 394 394 394 394 394 394 394 394 394 394 394 394 394 394 394 403 394 405 396 413 394 404 394 394 465 545 609 598 688 630 603 724 747 642 646 539 477 453 479 468 483 480 480 480 515 560 562 597 598 602 578 595 635 670 -9999 -9999 -9999 -9999 -9999 -9999 -9999 -9999 -9999 -9999 -9999 -9999 -9999 -9999 -9999 -9999 -9999 -9999 -9999 -9999 -9999 -9999 -9999 -9999 -9999 -9999 -9999 -9999 -9999 -9999 -9999 -9999 -9999 -9999 -9999 -9999 -9999 -9999 -9999 -9999 -9999 -9999 -9999 -9999 -9999 -9999 -9999 -9999 -9999 -9999 -9999
-9999 -9999 -9999 -9999 -9999 -9999 -9999 -9999 -9999 -9999 -9999 -9999 -9999 -9999 -9999 -9999 -9999 -9999 -9999 -9999 -9999 -9999 -9999 -9999 -9999 -9999 -9999 -9999 -9999 -9999 -9999 -9999 1809 1725 1530 1426 1538 1424 1476 1613 1716 1584 1479 1130 1116 1459 1433 1452 1393 1435 1149 1154 1295 1380 1252 1225 1381 1198 1319 1318 1152 1401 -9999 -9999 1550 1314 1290 1269 1208 1266 1344 1341 1429 1383 1547 1634 1619 1573 1569 1543 1378 1190 1106 823 718 685 580 580 677 614 580 580 802 845 616 561 610 730 675 545 631 755 722 562 670 574 649 604 684 615 552 520 477 444 402 396 394 394 394 394 394 394 394 394 394 394 399 394 394 394 395 394 394 394 394 394 394 394 394 394 394 394 394 394 394 394 394 394 394 394 400 394 413 416 394 422 399 394 394 489 507 605 624 727 720 713 687 756 719 706 655 546 547 453 524 533 514 593 611 487 519 519 519 619 647 626 684 736 864 -9999 -9999 -9999 -9999 -9999 -9999 -9999 -9999 -9999 -9999 -9999 -9999 -9999 -9999 -9999 -9999 -9999 -9999 -9999 -9999 -9999 -9999 -9999 -9999 -9999 -9999 -9999 -9999 -9999 -9999 -9999 -9999 -9999 -9999 -9999 -9999 -9999 -9999 -9999 -9999 -9999 -9999 -9999 -9999 -9999 -9999 -9999 -9999 -9999 -9999 -9999
-9999 -9999 -9999 -9999 -9999 -9999 -9999 -9999 -9999 -9999 -9999 -9999 -9999 -9999 -9999 -9999 -9999 -9999 -9999 -9999 -9999 -9999 -9999 -9999 -9999 -9999 -9999 -9999 -9999 -9999 -9999 -9999 -9999 -9999 1713 1697 1571 1474 1616 1687 1683 1625 1397 1327 1533 1490 1518 1554 1507 1542 1444 1292 1369 1579 1330 1476 1369 1301 1508 -9999 -9999 -9999 -9999 -9999 -9999 1353 1384 1280 1158 1267 1155 1219 1160 1190 1386 1406 1484 1525 1617 1402 1281 1130 1008 816 696 619 661 618 580 580 580 580 702 740 676 561 622 676 662 539 585 618 570 548 507 507 535 612 640 597 513 522 433 460 413 411 394 394 394 394 394 394 394 394 394 394 394 394 394 394 394 394 394 394 394 394 394 394 394 394 394 394 394 394 394 394 394 394 394 394 394 394 394 394 399 402 394 394 394 469 482 471 534 554 556 592 532 626 647 626 586 635 548 574 686 637 607 557 554 606 606 572 689 753 781 744 817 819 922 887 -9999 -9999 -9999 818 -9999 -9999 -9999 -9999 -9999 -9999 -9999 -9999 -9999 -9999 -9999 -9999 -9999 -9999 -9999 -9999 -9999 -9999 -9999 -9999 -9999 -9999 885 -9999 -9999 -9999 -9999 -9999 -9999 -9999 -9999 -9999 -9999 -9999 -9999 -9999 -9999 -9999 -9999 -9999 -9999 -9999 -9999 -9999 -9999 -9999
-9999 -9999 -9999 -9999 -9999 -9999 -9999 -9999 -9999 -9999 -9999 -9999 -9999 -9999 -9999 -9999 -9999 -9999 -9999 -9999 -9999 -9999 -9999 -9999 -9999 -9999 -9999 -9999 -9999 -9999 -9999 -9999 -9999 -9999 -9999 -9999 -9999 -9999 -9999 -9999 1615 1487 1421 1696 1665 1685 1719 1543 1507 1562 1576 1406 1425 1583 1481 1528 -9999 -9999 -9999 -9999 -9999 -9999 -9999 -9999 -9999 -9999 1452 1296 1101 1111 1172 946 969 1024 1080 1049 1128 1019 1188 1291 1031 985 993 796 771 763 835 718 714 580 580 580 580 580 483 483 483 483 547 518 515 600 543 483 538 516 550 565 613 520 506 464 433 421 418 395 394 394 394 394 394 394 394 394 394 394 394 394 394 394 394 394 394 394 394 394 394 394 394 394 394 394 394 394 394 394 394 394 394 394 394 394 394 394 394 394 394 394 394 414 443 458 499 513 521 492 523 514 524 605 734 639 713 803 618 598 557 595 592 589 638 735 749 774 866 884 854 863 873 726 878 822 898 881 891 917 848 843 -9999 -9999 -9999 -9999 -9999 553 529 -9999 -9999 -9999 -9999 -9999 -9999 -9999 -9999 -9999 991 912 728 756 969 975 -9999 -9999 -9999 875 822 764 712 773 669 759 749 -9999 -9999 -9999 -9999 -9999 -9999 -9999 -9999 -9999
-9999 -9999 -9999 -9999 -9999 -9999 -9999 -9999 -9999 -9999 -9999 -9999 -9999 -9999 -9999 -9999 -9999 -9999 -9999 -9999 -9999 -9999 -9999 -9999 -9999 -9999 -9999 -9999 -9999 -9999 -9999 -9999 -9999 -9999 -9999 -9999 -9999 -9999 -9999 -9999 -9999 -9999 1713 1844 1699 1784 1882 1692 1692 1816 1744 1738 1604 1664 1765 -9999 -9999 -9999 -9999 -9999 -9999 -9999 -9999 -9999 -9999 -9999 1246 1240 1120 968 950 899 835 898 852 962 918 981 1159 1251 1034 887 891 1065 1026 983 930 679 590 580 580 580 580 587 635 554 483 483 483 537 483 511 512 483 483 613 641 564 665 725 631 534 452 400 418 394 394 394 394 394 394 394 394 394 394 394 394 394 394 394 394 394 394 394 394 394 394 394 394 394 394 394 394 394 394 394 394 394 394 394 394 394 394 403 394 394 394 394 394 394 412 406 429 457 492 513 492 507 507 579 575 575 683 735 697 704 687 641 566 617 599 664 763 818 855 629 693 693 636 641 733 663 765 739 832 791 789 818 716 673 614 575 536 526 599 565 645 683 -9999 -9999 -9999 947 1059 838 766 692 598 630 754 783 858 -9999 1042 783 662 634 546 549 563 612 635 742 -9999 -9999 -9999 -9999 -9999 -9999 -9999 -9999
-9999 -9999 -9999 -9999 -9999 -9999 -9999 -9999 -9999 -9999 -9999 -9999 -9999 -9999 -9999 -9999 -9999 -9999 -9999 -9999 -9999 -9999 -9999 -9999 -9999 -9999 -9999 -9999 -9999 -9999 -9999 -9999 -9999 -9999 -9999 -9999 -9999 -9999 -9999 -9999 -9999 -9999 -9999 -9999 -9999 -9999 -9999 -9999 -9999 -9999 -9999 -9999 -9999 -9999 -9999 -9999 -9999 -9999 -9999 -9999 -9999 -9999 -9999 -9999 -9999 -9999 1090 1001 953 905 961 842 818 697 748 848 1033 958 1225 1168 1133 973 649 799 1010 884 718 769 580 666 683 806 664 643 684 589 483 483 483 483 483 515 483 483 603 642 741 678 714 589 622 581 491 420 394 394 394 394 394 394 394 394 394 394 394 394 394 394 394 394 394 394 394 394 394 394 394 394 394 394 394 394 394 394 394 394 394 394 394 394 394 394 394 394 394 394 394 394 394 394 400 397 437 467 426 496 518 599 612 644 612 575 590 619 645 647 551 502 608 612 633 643 725 687 639 585 565 559 518 577 611 578 654 632 676 652 658 640 574 574 573 516 478 502 590 546 511 721 807 822 857 938 652 623 640 559 531 576 607 614 848 994 987 753 632 468 443 459 461 473 569 -9999 -9999 -9999 -9999 -9999 -9999 -9999 -9999 -9999
-9999 -9999 -9999 -9999 -9999 -9999 -9999 -9999 -9999 -9999 -9999 -9999 -9999 -9999 -9999 -9999 -9999 -9999 -9999 -9999 -9999 -9999 -9999 -9999 -9999 -9999 -9999 -9999 -9999 -9999 -9999 -9999 -9999 -9999 -9999 -9999 -9999 -9999 -9999 -9999 -9999 -9999 -9999 -9999 -9999 -9999 -9999 -9999 -9999 -9999 -9999 -9999 -9999 -9999 -9999 -9999 -9999 -9999 -9999 -9999 -9999 -9999 -9999 -9999 -9999 -9999 1009 822 829 825 866 871 761 631 657 929 885 908 1096 971 974 1026 724 580 831 773 602 580 580 655 655 767 715 721 926 619 517 483 483 483 483 483 483 515 614 744 520 760 584 612 564 479 500 405 394 394 394 394 394 394 394 394 394 394 394 394 394 394 394 394 394 394 394 394 394 394 394 394 394 394 394 394 394 394 394 394 394 394 394 394 394 394 394 394 394 394 394 394 394 394 394 394 403 404 394 447 452 562 528 511 522 566 509 467 496 498 475 495 513 584 660 628 676 601 601 594 572 521 458 510 556 535 617 552 543 591 676 574 629 644 570 570 499 434 481 441 526 668 690 663 662 532 525 542 494 517 472 513 628 670 809 884 922 942 654 460 439 394 394 495 561 -9999 -9999 -9999 -9999 -9999 -9999 -9999 -9999 -9999
-9999 -9999 -9999 -9999 -9999 -9999 -9999 -9999 -9999 -9999 -9999 -9999 -9999 -9999 -9999 -9999 -9999 -9999 -9999 -9999 -9999 -9999 -9999 -9999 -9999 -9999 -9999 -9999 -9999 -9999 -9999 -9999 -9999 -9999 -9999 -9999 -9999 -9999 -9999 -9999 -9999 -9999 -9999 -9999 -9999 -9999 -9999 -9999 -9999 -9999 -9999 -9999 -9999 -9999 -9999 -9999 -9999 -9999 -9999 -9999 -9999 -9999 -9999 -9999 -9999 -9999 838 847 782 802 757 683 707 614 614 614 614 741 779 768 755 746 850 688 580 580 580 659 829 770 655 885 828 715 799 688 687 533 527 483 483 483 483 534 689 601 516 671 568 546 487 487 454 394 394 394 394 394 394 394 394 394 394 394 394 394 394 394 394 394 394 394 394 394 394 394 394 394 394 394 394 394 394 394 394 394 394 394 394 394 394 394 394 394 394 394 394 394 394 394 394 394 400 394 404 439 442 456 487 492 502 470 503 437 434 503 475 510 588 609 663 601 634 675 644 615 558 484 458 505 527 530 483 495 582 630 587 670 752 865 834 770 563 529 434 434 509 607 584 536 425 463 526 481 472 472 472 626 884 773 813 751 797 918 613 522 394 394 409 484 558 -9999 -9999 -9999 -9999 -9999 -9999 -9999 -9999 -9999
-9999 -9999 -9999 -9999 -9999 -9999 -9999 -9999 -9999 -9999 -9999 -9999 -9999 -9999 -9999 -9999 -9999 -9999 -9999 -9999 -9999 -9999 -9999 -9999 -9999 -9999 -9999 -9999 -9999 -9999 -9999 -9999 -9999 -9999 -9999 -9999 -9999 -9999 -9999 -9999 -9999 -9999 -9999 -9999 -9999 -9999 -9999 -9999 -9999 -9999 -9999 -9999 -9999 -9999 -9999 -9999 -9999 -9999 -9999 -9999 -9999 -9999 -9999 -9999 -9999 -9999 806 833 782 782 846 747 614 749 797 753 752 595 580 580 580 580 580 580 636 689 718 961 1064 851 718 655 741 767 869 818 796 669 697 581 483 483 483 483 583 516 596 671 543 480 470 450 415 394 394 394 394 394 394 394 394 394 394 394 394 394 394 394 394 394 394 394 394 394 394 394 394 394 394 394 394 394 394 394 394 394 394 394 394 394 394 394 394 394 394 394 394 394 394 394 394 399 394 394 437 448 394 421 434 467 481 490 470 517 471 394 434 495 514 634 481 553 569 623 549 542 507 504 496 429 429 432 440 521 591 582 582 659 750 725 650 641 764 673 492 434 447 516 516 394 421 574 633 525 485 472 512 751 745 653 641 577 734 692 661 600 394 394 394 499 494 -9999 -9999 -9999 -9999 -9999 -9999 -9999 -9999 -9999
-9999 -9999 -9999 -9999 -9999 -9999 -9999 -9999 -9999 -9999 -9999 -9999 -9999 -9999 -9999 -9999 -9999 -9999 -9999 -9999 -9999 -9999 -9999 -9999 -9999 -9999 -9999 -9999 -9999 -9999 -9999 -9999 -9999 -9999 -9999 -9999 -9999 -9999 -9999 -9999 -9999 -9999 -9999 -9999 -9999 -9999 -9999 -9999 -9999 -9999 -9999 -9999 -9999 -9999 -9999 -9999 -9999 -9999 -9999 -9999 -9999 -9999 -9999 -9999 -9999 -9999 793 793 782 871 726 620 759 981 925 954 1003 895 864 860 807 636 708 684 644 636 636 703 824 854 655 745 790 822 721 765 785 729 669 623 597 498 483 483 483 483 577 684 529 457 484 422 408 394 394 394 394 394 394 394 394 394 394 394 394 394 394 394 394 394 394 394 394 394 394 394 394 394 394 394 394 394 394 394 394 394 394 394 394 394 394 394 394 394 394 394 394 394 394 394 394 394 394 394 394 394 394 394 400 394 438 457 435 428 511 394 472 485 531 481 492 499 556 557 467 429 429 429 429 460 515 544 545 456 676 728 678 614 605 543 494 494 583 553 563 474 434 457 404 394 413 591 677 535 472 528 520 740 667 471 635 532 548 587 479 457 494 462 394 422 473 -9999 -9999 -9999 -9999 -9999 -9999 -9999 -9999 -9999
-9999 -9999 -9999 -9999 -9999 -9999 -9999 -9999 -9999 -9999 -9999 -9999 -9999 -9999 -9999 -9999 -9999 -9999 -9999 -9999 -9999 -9999 -9999 -9999 -9999 -9999 -9999 -9999 -9999 -9999 -9999 -9999 -9999 -9999 -9999 -9999 -9999 -9999 -9999 -9999 -9999 -9999 -9999 -9999 -9999 -9999 -9999 -9999 -9999 -9999 -9999 -9999 -9999 -9999 -9999 -9999 -9999 -9999 -9999 -9999 -9999 -9999 -9999 -9999 -9999 -9999 793 797 965 876 708 684 834 1048 991 1003 908 872 804 865 818 636 637 817 880 809 704 803 760 848 673 753 908 749 678 629 626 686 665 549 562 483 511 607 483 483 613 665 503 433 451 406 394 394 394 394 394 394 394 394 394 394 394 394 394 394 394 394 394 394 394 394 394 394 394 394 394 394 394 394 394 394 394 394 394 394 394 394 397 423 394 394 394 394 394 394 394 394 394 394 394 394 394 394 394 394 394 394 394 394 394 428 394 396 394 425 477 410 410 410 410 490 490 438 413 446 504 499 534 620 653 642 543 506 517 652 642 601 664 537 494 494 494 533 448 417 394 394 423 394 442 528 513 537 504 394 482 511 462 403 440 453 394 530 448 436 405 394 394 394 546 -9999 -9999 -9999 -9999 -9999 -9999 -9999 -9999 -9999
-9999 -9999 -9999 -9999 -9999 -9999 -9999 -9999 -9999 -9999 -9999 -9999 -9999 -9999 -9999 -9999 -9999 -9999 -9999 -9999 -9999 -9999 -9999 -9999 -9999 -9999 -9999 -9999 -9999 -9999 -9999 -9999 -9999 -9999 -9999 -9999 -9999 -9999 -9999 -9999 -9999 -9999 -9999 -9999 -9999 -9999 -9999 -9999 -9999 -9999 -9999 -9999 -9999 -9999 -9999 -9999 -9999 -9999 -9999 -9999 -9999 -9999 -9999 -9999 -9999 847 793 793 826 762 695 745 898 986 831 860 931 687 687 716 715 636 636 673 820 846 830 893 760 829 797 854 922 858 746 681 624 567 601 511 511 483 558 573 492 483 663 709 519 462 394 394 403 394 394 394 394 394 394 394 394 394 394 394 394 394 394 394 394 394 394 394 394 394 394 394 394 394 394 394 394 394 394 394 394 394 394 407 404 396 394 394 394 394 394 394 394 394 394 394 394 394 394 394 394 394 394 394 394 394 394 394 394 394 478 394 430 512 505 410 410 410 410 413 477 624 540 626 652 625 620 675 646 621 542 479 479 479 481 494 517 589 592 503 591 473 413 394 394 394 451 440 394 444 444 446 394 394 394 394 394 394 394 445 439 394 394 394 394 394 465 -9999 -9999 -9999 -9999 -9999 -9999 -9999 -9999 -9999
-9999 -9999 -9999 -9999 -9999 -9999 -9999 -9999 -9999 -9999 -9999 -9999 -9999 -9999 -9999 -9999 -9999 -9999 -9999 -9999 -9999 -9999 -9999 -9999 -9999 -9999 -9999 -9999 -9999 -9999 -9999 -9999 -9999 -9999 -9999 -9999 -9999 -9999 -9999 -9999 -9999 -9999 -9999 -9999 -9999 -9999 -9999 -9999 -9999 -9999 -9999 -9999 -9999 -9999 -9999 -9999 -9999 -9999 -9999 -9999 -9999 -9999 -9999 -9999 1201 906 843 793 825 874 782 840 999 938 752 744 744 914 840 687 670 688 943 720 863 951 951 939 873 936 952 965 867 798 710 680 626 511 511 514 583 498 543 638 551 483 522 603 539 513 394 394 394 394 394 394 394 394 394 394 394 394 394 394 394 394 394 394 394 394 394 394 394 394 394 394 394 394 444 394 394 394 394 394 394 451 394 394 394 394 394 394 394 394 394 394 394 394 394 394 394 394 394 394 394 394 394 394 394 394 394 394 394 394 394 394 430 412 399 475 498 479 499 582 610 736 676 628 728 723 652 706 719 689 641 548 487 524 470 470 445 485 421 424 427 569 582 601 394 394 450 394 394 397 394 411 476 441 429 418 394 394 394 405 394 412 394 394 394 410 428 -9999 -9999 -9999 -9999 -9999 -9999 -9999 -9999 -9999
-9999 -9999 -9999 -9999 -9999 -9999 -9999 -9999 -9999 -9999 -9999 -9999 -9999 -9999 -9999 -9999 -9999 -9999 -9999 -9999 -9999 -9999 -9999 -9999 -9999 -9999 -9999 -9999 -9999 -9999 -9999 -9999 -9999 -9999 -9999 -9999 -9999 -9999 -9999 -9999 -9999 -9999 -9999 -9999 -9999 -9999 -9999 -9999 -9999 -9999 -9999 -9999 -9999 -9999 -9999 -9999 -9999 -9999 -9999 -9999 -9999 -9999 -9999 1303 1073 928 874 940 1053 1028 915 917 1022 907 882 899 826 781 909 905 945 844 1022 792 892 1033 1058 1096 900 954 1117 1047 776 692 649 608 539 641 524 647 680 606 655 773 613 541 483 445 494 449 394 394 394 394 394 394 394 394 394 394 394 394 394 394 394 394 394 394 394 394 394 394 394 394 400 446 411 429 427 394 394 394 394 394 394 394 394 394 394 398 394 396 394 394 394 394 394 394 394 394 394 394 394 394 394 394 394 394 394 394 394 394 394 394 394 394 394 394 394 430 409 520 568 647 685 676 692 624 692 526 622 588 624 656 587 640 570 567 470 550 460 445 421 421 475 413 438 394 394 394 394 394 478 544 394 394 483 469 394 394 394 394 394 394 394 394 394 394 394 444 472 -9999 -9999 -9999 -9999 -9999 -9999 -9999 -9999 -9999
-9999 -9999 -9999 -9999 -9999 -9999 -9999 -9999 -9999 -9999 -9999 -9999 -9999 -9999 -9999 -9999 -9999 -9999 -9999 -9999 -9999 -9999 -9999 -9999 -9999 -9999 -9999 -9999 -9999 -9999 -9999 -9999 -9999 -9999 -9999 -9999 -9999 -9999 -9999 -9999 -9999 -9999 -9999 -9999 -9999 -9999 -9999 -9999 -9999 -9999 -9999 -9999 -9999 -9999 -9999 -9999 -9999 -9999 -9999 -9999 -9999 -9999 1404 1166 1137 1073 1021 994 995 1022 1042 1013 882 882 927 1033 789 810 1148 1177 994 950 1090 894 957 1109 1208 1244 1092 1079 1153 1050 848 835 773 710 778 686 552 561 687 748 708 862 717 861 694 394 394 394 394 394 394 394 394 394 394 394 394 394 394 394 394 394 394 394 394 394 394 394 394 394 394 448 477 412 394 394 394 394 394 394 394 394 394 394 394 394 394 397 394 394 394 394 394 394 394 394 394 394 394 394 394 394 394 394 394 394 394 394 394 394 394 394 394 394 394 394 465 422 409 485 510 566 583 605 607 605 439 461 454 472 555 556 543 596 635 612 528 484 441 423 429 451 421 413 413 438 394 394 419 394 394 394 398 436 394 394 394 394 394 394 394 457 394 394 394 394 394 446 429 412 -9999 -9999 -9999 -9999 -9999 -9999 -9999 -9999
-9999 -9999 -9999 -9999 -9999 -9999 -9999 -9999 -9999 -9999 -9999 -9999 -9999 -9999 -9999 -9999 -9999 -9999 -9999 -9999 -9999 -9999 -9999 -9999 -9999 -9999 -9999 -9999 -9999 -9999 -9999 -9999 -9999 -9999 -9999 -9999 -9999 -9999 -9999 -9999 -9999 -9999 -9999 -9999 -9999 -9999 -9999 -9999 -9999 -9999 -9999 -9999 -9999 -9999 -9999 -9999 -9999 -9999 -9999 -9999 -9999 -9999 1392 1185 1133 1155 994 1148 1058 936 936 916 997 960 921 920 985 913 1254 1138 1101 1160 1126 1091 1101 1189 1167 1179 1170 1224 1298 1090 1082 1000 856 918 701 653 552 562 731 871 864 820 779 937 841 614 628 397 394 404 394 394 394 394 394 394 394 394 394 394 394 394 394 394 394 394 394 394 394 394 408 394 394 394 394 394 394 394 394 394 394 394 394 402 453 415 394 394 394 394 394 394 394 394 394 394 394 394 394 394 394 394 394 394 394 394 394 394 394 394 394 394 455 484 423 472 496 470 420 394 432 426 436 445 449 421 417 437 452 450 510 454 474 481 544 565 555 539 476 441 502 599 637 569 455 443 556 492 510 429 394 394 394 394 466 420 394 394 394 394 394 476 394 394 394 394 413 458 394 428 442 -9999 -9999 -9999 -9999 -9999 -9999 -9999
-9999 -9999 -9999 -9999 -9999 -9999 -9999 -9999 -9999 -9999 -9999 -9999 -9999 -9999 -9999 -9999 -9999 -9999 -9999 -9999 -9999 -9999 -9999 -9999 -9999 -9999 -9999 -9999 -9999 -9999 -9999 -9999 -9999 -9999 -9999 -9999 -9999 -9999 -9999 -9999 -9999 -9999 -9999 -9999 -9999 -9999 -9999 -9999 -9999 -9999 -9999 -9999 -9999 -9999 -9999 -9999 -9999 -9999 -9999 -9999 -9999 -9999 -9999 1323 1282 1128 1103 1247 1126 1009 1054 1042 985 1090 1088 1095 1105 1257 1280 1267 1213 1313 1316 1353 1139 964 992 992 1054 1101 1131 1085 1118 855 797 714 706 640 689 705 849 799 795 645 699 776 814 751 636 467 438 435 442 394 429 421 394 394 394 394 394 394 394 394 394 394 394 394 394 394 394 394 452 394 394 394 394 394 394 394 394 394 394 394 394 514 520 503 430 394 394 394 394 394 394 394 394 394 394 394 394 394 394 394 394 394 394 394 394 394 394 412 418 398 443 418 395 420 396 401 398 394 394 394 442 417 417 417 419 417 458 449 458 448 519 545 520 496 463 463 463 461 496 511 567 540 494 776 800 576 603 612 554 394 501 474 654 624 394 394 394 394 424 516 462 394 464 458 394 394 394 394 -9999 -9999 -9999 -9999 -9999 -9999 -9999 -9999
-9999 -9999 -9999 -9999 -9999 -9999 -9999 -9999 -9999 -9999 -9999 -9999 -9999 -9999 -9999 -9999 -9999 -9999 -9999 -9999 -9999 -9999 -9999 -9999 -9999 -9999 -9999 -9999 -9999 -9999 -9999 -9999 -9999 -9999 -9999 -9999 -9999 -9999 -9999 -9999 -9999 -9999 -9999 -9999 -9999 -9999 -9999 -9999 -9999 -9999 -9999 -9999 -9999 -9999 -9999 -9999 -9999 -9999 -9999 -9999 -9999 -9999 -9999 -9999 1307 1162 1292 -9999 -9999 -9999 -9999 -9999 -9999 -9999 1123 1280 1246 1192 1234 1272 1284 1321 1495 1536 1161 841 842 831 879 982 933 926 788 714 639 581 650 686 843 852 743 665 712 736 645 759 685 637 465 420 418 394 394 394 419 445 419 394 394 394 394 394 394 394 394 394 394 394 394 394 394 432 420 394 394 394 394 394 394 394 394 394 394 394 498 523 606 501 428 394 394 394 394 394 394 394 394 394 394 394 394 394 394 394 394 394 394 394 394 394 394 394 394 394 394 394 394 394 394 394 394 394 401 419 418 419 417 475 466 481 448 448 448 448 448 464 472 469 463 547 570 566 600 646 757 731 603 701 858 713 758 812 736 721 729 536 640 621 394 394 394 429 547 520 553 416 394 416 394 394 -9999 -9999 -9999 -9999 -9999 -9999 -9999 -9999 -9999 -9999
-9999 -9999 -9999 -9999 -9999 -9999 -9999 -9999 -9999 -9999 -9999 -9999 -9999 -9999 -9999 -9999 -9999 -9999 -9999 -9999 -9999 -9999 -9999 -9999 -9999 -9999 -9999 -9999 -9999 -9999 -9999 -9999 -9999 -9999 -9999 -9999 -9999 -9999 -9999 -9999 -9999 -9999 -9999 -9999 -9999 -9999 -9999 -9999 -9999 -9999 -9999 -9999 -9999 -9999 -9999 -9999 -9999 -9999 -9999 -9999 -9999 -9999 -9999 -9999 -9999 -9999 -9999 -9999 -9999 -9999 -9999 -9999 -9999 -9999 1196 1119 1128 1039 1176 1125 1144 1211 1430 1406 1193 1015 724 725 823 865 840 666 659 624 555 519 597 644 938 854 648 590 560 494 558 561 703 576 501 533 394 472 440 394 424 508 418 408 394 394 394 394 394 394 394 394 394 394 394 394 394 394 394 394 394 394 394 394 394 394 394 395 491 479 633 601 539 452 402 394 394 394 394 394 394 394 394 394 394 394 394 394 394 394 394 394 394 394 394 394 394 394 394 394 394 394 394 394 394 394 394 394 402 401 394 410 491 592 604 573 565 489 473 516 492 464 464 486 711 698 607 759 714 695 798 807 769 729 818 796 849 909 824 782 662 513 649 555 420 394 510 576 588 566 394 394 665 635 474 -9999 -9999 -9999 -9999 -9999 -9999 -9999 -9999 -9999 -9999 -9999
-9999 -9999 -9999 -9999 -9999 -9999 -9999 -9999 -9999 -9999 -9999 -9999 -9999 -9999 -9999 -9999 -9999 -9999 -9999 -9999 -9999 -9999 -9999 -9999 -9999 -9999 -9999 -9999 -9999 -9999 -9999 -9999 -9999 -9999 -9999 -9999 -9999 -9999 -9999 -9999 -9999 -9999 -9999 -9999 -9999 -9999 -9999 -9999 -9999 -9999 -9999 -9999 -9999 -9999 -9999 -9999 -9999 -9999 -9999 -9999 -9999 -9999 -9999 -9999 -9999 -9999 -9999 -9999 -9999 -9999 -9999 -9999 -9999 -9999 992 923 945 996 1115 1008 999 1107 1270 1262 1192 1021 733 658 851 964 797 570 575 566 528 490 530 739 873 808 763 710 577 586 494 454 496 543 450 394 394 456 448 473 405 514 519 452 396 398 394 394 394 394 394 394 394 394 394 394 394 394 394 394 394 394 394 394 394 394 408 450 464 484 624 613 536 525 434 394 394 394 394 394 394 394 394 394 394 394 394 394 394 394 394 394 394 394 394 424 394 394 394 394 394 394 394 394 394 394 394 394 394 394 464 552 637 782 750 729 700 566 538 520 554 558 575 610 605 624 614 620 699 567 774 798 749 723 682 639 782 724 757 733 658 490 654 477 394 394 394 609 543 428 394 634 713 672 594 -9999 -9999 -9999 -9999 -9999 -9999 -9999 -9999 -9999 -9999 -9999
-9999 -9999 -9999 -9999 -9999 -9999 -9999 -9999 -9999 -9999 -9999 -9999 -9999 -9999 -9999 -9999 -9999 -9999 -9999 -9999 -9999 -9999 -9999 -9999 -9999 -9999 -9999 -9999 -9999 -9999 -9999 -9999 -9999 -9999 -9999 -9999 -9999 -9999 -9999 -9999 -9999 -9999 -9999 -9999 -9999 -9999 -9999 -9999 -9999 -9999 -9999 -9999 -9999 -9999 -9999 -9999 -9999 -9999 -9999 -9999 -9999 -9999 -9999 -9999 -9999 -9999 -9999 -9999 -9999 -9999 -9999 -9999 -9999 -9999 814 833 930 896 965 978 883 1015 983 1035 1137 987 768 623 819 707 676 543 486 541 472 584 646 771 874 952 876 788 682 622 531 477 454 394 394 394 497 436 518 463 444 611 621 497 513 488 441 671 420 394 395 394 394 394 394 394 394 394 394 394 394 394 394 394 394 394 394 394 394 398 434 520 542 480 452 432 394 394 394 394 394 394 394 394 394 394 394 394 394 394 394 394 444 416 485 429 441 425 440 394 394 394 394 394 394 394 394 411 394 394 563 644 745 790 797 828 796 702 624 569 596 574 513 530 512 571 552 470 498 566 652 651 648 624 586 622 607 619 694 675 492 490 532 394 394 480 394 438 394 510 620 604 810 800 753 -9999 -9999 -9999 -9999 -9999 -9999 -9999 -9999 -9999 -9999 -9999
-9999 -9999 -9999 -9999 -9999 -9999 -9999 -9999 -9999 -9999 -9999 -9999 -9999 -9999 -9999 -9999 -9999 -9999 -9999 -9999 -9999 -9999 -9999 -9999 -9999 -9999 -9999 -9999 -9999 -9999 -9999 -9999 -9999 -9999 -9999 -9999 -9999 -9999 -9999 -9999 -9999 -9999 -9999 -9999 -9999 -9999 -9999 -9999 -9999 -9999 -9999 -9999 -9999 -9999 -9999 -9999 -9999 -9999 -9999 -9999 -9999 -9999 -9999 -9999 -9999 -9999 -9999 -9999 -9999 -9999 -9999 -9999 -9999 -9999 695 812 838 788 790 810 741 817 785 974 930 826 808 618 750 692 580 570 572 486 470 615 748 866 886 802 804 633 530 436 394 394 394 402 456 536 539 460 526 444 468 538 664 626 593 629 653 542 407 419 461 480 394 394 394 394 394 394 394 394 394 499 483 545 413 394 394 394 394 394 394 416 410 394 394 394 394 394 394 394 394 394 394 394 394 394 394 394 411 394 394 394 441 458 428 438 521 459 465 487 461 434 427 394 394 415 545 519 511 570 674 559 577 646 823 858 809 737 576 542 422 465 423 438 429 442 432 446 486 591 649 643 603 560 540 584 585 597 670 655 511 398 394 420 701 501 394 394 498 563 691 710 835 884 898 -9999 -9999 -9999 -9999 -9999 -9999 -9999 -9999 -9999 -9999 -9999
-9999 -9999 -9999 -9999 -9999 -9999 -9999 -9999 -9999 -9999 -9999 -9999 -9999 -9999 -9999 -9999 -9999 -9999 -9999 -9999 -9999 -9999 -9999 -9999 -9999 -9999 -9999 -9999 -9999 -9999 -9999 -9999 -9999 -9999 -9999 -9999 -9999 -9999 -9999 -9999 -9999 -9999 -9999 -9999 -9999 -9999 -9999 -9999 -9999 -9999 -9999 -9999 -9999 -9999 -9999 -9999 -9999 -9999 -9999 -9999 -9999 -9999 -9999 -9999 -9999 -9999 -9999 -9999 -9999 -9999 -9999 -9999 -9999 -9999 723 836 760 723 701 802 901 629 615 840 867 716 620 570 672 623 517 470 545 470 506 676 772 713 794 678 654 598 473 402 413 451 526 471 531 587 564 460 594 444 471 589 606 736 694 601 541 469 407 521 613 525 415 394 407 394 394 394 394 394 394 557 645 506 419 394 394 394 394 394 394 428 457 417 394 394 394 394 394 394 394 394 394 394 394 394 394 394 394 394 394 394 469 500 477 493 541 512 521 542 541 519 528 498 532 599 655 623 606 496 540 528 477 507 607 714 717 680 487 510 394 394 406 418 473 470 403 541 505 661 635 587 540 540 554 625 607 670 727 676 397 394 450 644 774 492 394 460 562 679 750 856 866 841 -9999 -9999 -9999 -9999 -9999 -9999 -9999 -9999 -9999 -9999 -9999 -9999
-9999 -9999 -9999 -9999 -9999 -9999 -9999 -9999 -9999 -9999 -9999 -9999 -9999 -9999 -9999 -9999 -9999 -9999 -9999 -9999 -9999 -9999 -9999 -9999 -9999 -9999 -9999 -9999 -9999 -9999 -9999 -9999 -9999 -9999 -9999 -9999 -9999 -9999 -9999 -9999 -9999 -9999 -9999 -9999 -9999 -9999 -9999 -9999 -9999 -9999 -9999 -9999 -9999 -9999 -9999 -9999 -9999 -9999 -9999 -9999 -9999 -9999 -9999 -9999 -9999 -9999 -9999 -9999 -9999 -9999 -9999 -9999 -9999 -9999 832 871 809 625 722 734 681 668 551 753 730 650 541 541 678 709 596 551 470 470 480 680 626 549 640 621 516 402 402 456 484 571 640 592 612 630 466 515 572 463 586 719 706 695 729 520 440 432 511 555 556 457 394 394 394 394 394 394 394 394 394 394 394 394 394 394 394 394 394 394 394 395 437 441 394 407 394 394 394 394 394 394 394 394 394 394 394 394 394 394 394 394 394 394 394 394 394 394 588 665 679 657 685 612 810 779 782 665 512 412 454 479 400 460 408 491 657 620 461 416 394 394 443 436 480 403 438 517 503 641 623 611 596 552 457 516 655 717 625 568 394 442 526 730 742 608 612 498 460 590 664 923 900 841 896 -9999 -9999 -9999 -9999 -9999 -9999 -9999 -9999 -9999 -9999 -9999
-9999 -9999 -9999 -9999 -9999 -9999 -9999 -9999 -9999 -9999 -9999 -9999 -9999 -9999 -9999 -9999 -9999 -9999 -9999 -9999 -9999 -9999 -9999 -9999 -9999 -9999 -9999 -9999 -9999 -9999 -9999 -9999 -9999 -9999 -9999 -9999 -9999 -9999 -9999 -9999 -9999 -9999 -9999 -9999 -9999 -9999 -9999 -9999 -9999 -9999 -9999 -9999 -9999 -9999 -9999 -9999 -9999 -9999 -9999 -9999 -9999 -9999 -9999 -9999 -9999 -9999 -9999 -9999 -9999 -9999 -9999 -9999 -9999 -9999 840 746 807 574 656 738 721 608 550 529 602 541 560 599 722 632 572 525 474 470 483 604 587 517 517 402 402 435 480 563 642 679 755 681 545 493 552 603 575 490 573 738 540 775 678 490 454 555 625 591 539 443 395 394 394 394 394 394 394 394 394 394 394 394 394 394 394 394 394 394 394 394 394 394 394 394 394 394 394 394 394 394 394 394 394 394 394 394 394 394 394 394 394 394 394 394 394 394 520 681 713 674 650 519 551 570 587 555 405 394 424 394 394 394 394 429 519 394 485 405 394 439 478 486 394 398 394 405 491 556 621 437 509 480 394 540 621 679 592 462 394 415 517 576 801 678 680 622 565 495 581 744 906 969 851 1013 -9999 -9999 -9999 -9999 -9999 -9999 -9999 -9999 -9999 -9999
-9999 -9999 -9999 -9999 -9999 -9999 -9999 -9999 -9999 -9999 -9999 -9999 -9999 -9999 -9999 -9999 -9999 -9999 -9999 -9999 -9999 -9999 -9999 -9999 -9999 -9999 -9999 -9999 -9999 -9999 -9999 -9999 -9999 -9999 -9999 -9999 -9999 -9999 -9999 -9999 -9999 -9999 -9999 -9999 -9999 -9999 -9999 -9999 -9999 -9999 -9999 -9999 -9999 -9999 -9999 -9999 -9999 -9999 -9999 -9999 -9999 -9999 -9999 -9999 -9999 -9999 -9999 -9999 -9999 -9999 -9999 -9999 -9999 -9999 807 747 606 574 727 755 647 579 582 498 498 554 613 712 697 662 563 559 547 470 485 510 505 457 457 552 602 551 497 606 624 805 816 624 528 523 685 601 554 577 490 532 644 741 747 644 500 534 681 591 518 433 403 411 404 394 394 394 394 394 394 394 394 394 394 394 394 394 394 394 394 394 394 394 394 394 394 394 394 394 394 394 394 394 394 394 394 394 394 401 417 394 401 394 394 394 394 394 459 497 544 437 487 470 450 462 465 475 406 411 394 394 394 394 394 394 394 394 437 406 394 435 400 418 394 394 401 394 458 472 394 394 394 394 394 394 394 394 394 394 522 434 506 597 652 643 593 593 533 495 495 599 620 899 953 -9999 -9999 -9999 -9999 -9999 -9999 -9999 -9999 -9999 -9999 -9999
-9999 -9999 -9999 -9999 -9999 -9999 -9999 -9999 -9999 -9999 -9999 -9999 -9999 -9999 -9999 -9999 -9999 -9999 -9999 -9999 -9999 -9999 -9999 -9999 -9999 -9999 -9999 -9999 -9999 -9999 -9999 -9999 -9999 -9999 -9999 -9999 -9999 -9999 -9999 -9999 -9999 -9999 -9999 -9999 -9999 -9999 -9999 -9999 -9999 -9999 -9999 -9999 -9999 -9999 -9999 -9999 -9999 -9999 -9999 -9999 -9999 -9999 -9999 -9999 -9999 -9999 -9999 -9999 -9999 -9999 -9999 -9999 -9999 662 614 614 554 554 777 784 654 498 498 500 505 645 690 582 611 551 588 561 525 517 457 457 457 590 570 553 662 540 564 718 826 778 741 575 590 699 699 657 704 608 508 609 744 746 834 720 504 572 668 555 511 429 443 405 394 394 440 394 394 394 394 394 394 394 394 394 394 394 394 394 394 394 394 394 394 394 394 394 394 394 394 394 394 394 394 394 394 394 394 394 430 460 479 425 394 394 394 394 394 411 394 454 394 487 417 394 394 394 394 394 394 394 394 394 394 394 394 394 394 394 394 394 394 394 394 394 394 394 394 394 394 394 394 401 394 406 394 394 394 394 428 599 526 638 597 697 624 670 519 495 577 521 521 652 -9999 -9999 -9999 -9999 -9999 -9999 -9999 -9999 -9999 -9999 -9999 -9999
-9999 -9999 -9999 -9999 -9999 -9999 -9999 -9999 -9999 -9999 -9999 -9999 -9999 -9999 -9999 -9999 -9999 -9999 -9999 -9999 -9999 -9999 -9999 -9999 -9999 -9999 -9999 -9999 -9999 -9999 -9999 -9999 -9999 -9999 -9999 -9999 -9999 -9999 -9999 -9999 -9999 -9999 -9999 -9999 -9999 -9999 -9999 -9999 -9999 -9999 -9999 -9999 -9999 -9999 -9999 -9999 -9999 -9999 -9999 -9999 -9999 -9999 -9999 -9999 -9999 -9999 -9999 -9999 -9999 -9999 -9999 -9999 906 827 820 773 554 554 638 498 498 675 498 504 463 626 639 538 579 505 458 501 457 457 457 457 457 598 729 647 695 547 668 782 947 752 659 582 678 831 840 759 586 586 558 564 709 825 694 648 504 504 662 597 520 463 460 447 464 447 452 394 396 394 394 394 394 394 394 394 394 394 394 394 394 394 394 394 394 394 394 394 394 394 394 394 394 394 394 394 394 394 394 394 420 394 394 416 410 394 394 394 394 394 394 431 394 394 394 394 394 394 394 394 394 394 394 394 467 394 394 394 394 394 394 394 394 394 394 394 394 394 394 394 394 394 418 496 394 415 521 592 625 484 394 662 658 719 633 624 709 762 757 588 578 571 635 560 -9999 -9999 -9999 -9999 -9999 -9999 -9999 -9999 -9999 -9999 -9999 -9999
-9999 -9999 -9999 -9999 -9999 -9999 -9999 -9999 -9999 -9999 -9999 -9999 -9999 -9999 -9999 -9999 -9999 -9999 -9999 -9999 -9999 -9999 -9999 -9999 -9999 -9999 -9999 -9999 -9999 -9999 -9999 -9999 -9999 -9999 -9999 -9999 -9999 -9999 -9999 -9999 -9999 -9999 -9999 -9999 -9999 -9999 -9999 -9999 -9999 -9999 -9999 -9999 -9999 -9999 -9999 -9999 -9999 -9999 -9999 -9999 -9999 -9999 -9999 -9999 -9999 -9999 -9999 -9999 -9999 -9999 -9999 -9999 957 862 817 825 731 772 554 687 793 784 612 463 476 554 585 529 596 508 460 457 457 466 477 481 469 578 755 766 709 732 581 782 869 771 797 670 694 886 780 604 586 720 604 707 652 799 750 672 508 544 664 749 582 610 708 582 490 394 394 394 402 410 394 394 394 394 394 394 394 394 394 394 394 394 394 394 394 394 394 394 394 394 394 394 394 394 394 394 394 394 394 394 394 394 394 394 394 394 394 394 394 394 394 394 394 394 394 394 394 394 394 394 394 394 452 505 425 394 394 394 394 394 394 394 394 394 394 394 394 394 394 394 394 394 482 411 394 551 687 708 666 506 397 496 584 791 763 650 778 818 736 640 580 656 752 -9999 -9999 -9999 -9999 -9999 -9999 -9999 -9999 -9999 -9999 -9999 -9999 -9999
-9999 -9999 -9999 -9999 -9999 -9999 -9999 -9999 -9999 -9999 -9999 -9999 -9999 -9999 -9999 -9999 -9999 -9999 -9999 -9999 -9999 -9999 -9999 -9999 -9999 -9999 -9999 -9999 -9999 -9999 -9999 -9999 -9999 -9999 -9999 -9999 -9999 -9999 -9999 -9999 -9999 -9999 -9999 -9999 -9999 -9999 -9999 -9999 -9999 -9999 -9999 -9999 -9999 -9999 -9999 -9999 -9999 -9999 -9999 -9999 -9999 -9999 -9999 -9999 -9999 -9999 -9999 -9999 -9999 -9999 890 942 1001 883 866 810 750 708 708 737 813 732 548 508 463 492 499 592 522 457 457 457 457 619 591 564 505 529 629 766 783 829 631 698 905 906 907 792 851 688 772 720 667 840 885 795 765 836 682 687 508 508 639 719 619 690 552 527 447 394 394 459 394 416 463 433 394 394 394 394 394 394 394 394 394 394 394 394 394 394 394 394 394 394 394 394 394 394 394 394 394 394 394 394 394 394 394 394 394 394 394 394 394 394 394 394 394 394 394 394 394 394 394 394 394 436 578 563 404 394 397 394 394 394 394 394 394 394 394 394 394 394 394 419 394 394 437 536 394 394 481 466 458 458 548 634 661 822 819 785 765 828 788 678 674 672 -9999 -9999 -9999 -9999 -9999 -9999 -9999 -9999 -9999 -9999 -9999 -9999 -9999 -9999
