ncols	288
nrows	63
xllcorner	3973369
yllcorner	2793347
cellsize	500
NODATA_value	-9999
-9999 -9999 -9999 -9999 -9999 -9999 -9999 -9999 -9999 -9999 -9999 -9999 -9999 -9999 -9999 -9999 -9999 -9999 -9999 -9999 -9999 -9999 -9999 -9999 -9999 -9999 -9999 -9999 -9999 -9999 -9999 -9999 -9999 -9999 -9999 -9999 -9999 -9999 -9999 -9999 -9999 -9999 -9999 -9999 -9999 -9999 -9999 -9999 -9999 -9999 -9999 -9999 -9999 -9999 -9999 -9999 -9999 -9999 -9999 -9999 -9999 -9999 -9999 -9999 -9999 -9999 -9999 -9999 -9999 -9999 -9999 -9999 -9999 -9999 -9999 -9999 -9999 -9999 -9999 -9999 -9999 -9999 -9999 -9999 -9999 -9999 -9999 -9999 -9999 -9999 -9999 -9999 -9999 -9999 408 392 350 339 332 324 326 330 330 300 293 293 300 309 305 304 323 327 292 311 307 295 299 293 292 306 312 312 308 305 305 281 272 252 250 250 256 276 274 284 286 306 310 304 305 305 319 329 332 325 308 278 250 250 250 250 263 251 251 264 254 270 262 288 282 272 261 276 337 316 318 326 320 324 325 285 271 260 259 278 258 269 255 268 262 274 273 279 255 251 254 254 254 254 271 292 296 300 307 311 306 314 318 321 305 294 274 275 300 276 290 277 256 266 265 277 297 305 304 302 286 269 268 275 268 268 283 297 290 295 290 290 293 290 303 295 290 299 301 305 334 337 370 344 405 388 369 425 445 411 406 470 430 473 525 559 566 560 639 570 479 397 391 391 391 419 519 451 451 581 710 721 625 560 601 650 725 752 -9999 -9999 -9999 -9999 -9999 -9999 -9999 -9999 -9999 -9999 -9999 -9999 -9999 -9999 -9999 -9999
-9999 -9999 -9999 -9999 -9999 -9999 -9999 -9999 -9999 -9999 -9999 -9999 -9999 -9999 -9999 -9999 -9999 -9999 -9999 -9999 -9999 -9999 -9999 -9999 -9999 -9999 -9999 -9999 -9999 -9999 -9999 -9999 -9999 -9999 -9999 -9999 -9999 -9999 -9999 -9999 -9999 -9999 -9999 -9999 -9999 -9999 -9999 -9999 -9999 -9999 -9999 -9999 -9999 -9999 -9999 -9999 -9999 -9999 -9999 -9999 -9999 -9999 -9999 -9999 -9999 -9999 -9999 -9999 -9999 -9999 -9999 -9999 -9999 -9999 -9999 -9999 -9999 -9999 -9999 -9999 -9999 -9999 -9999 -9999 -9999 -9999 -9999 -9999 -9999 -9999 -9999 -9999 -9999 -9999 399 393 389 366 345 324 324 310 301 298 298 299 305 311 314 305 310 309 311 314 314 302 306 310 317 321 323 323 313 304 303 299 280 267 250 250 250 268 260 264 272 296 296 299 299 310 315 323 323 326 323 320 250 250 250 250 262 263 258 251 251 254 254 254 255 274 259 269 280 281 297 302 287 319 284 275 264 262 267 259 270 258 259 263 280 267 274 302 300 271 266 271 258 254 287 287 290 301 303 321 319 334 322 308 301 279 280 302 304 276 310 292 256 256 262 267 276 273 291 289 288 285 291 278 279 268 268 273 291 290 290 290 290 290 290 290 290 293 294 311 338 355 398 407 418 431 426 387 445 422 429 495 461 543 552 556 437 506 529 435 380 391 454 418 398 421 510 546 482 490 540 744 635 589 658 677 749 -9999 -9999 -9999 -9999 -9999 -9999 -9999 -9999 -9999 -9999 -9999 -9999 -9999 -9999 -9999 -9999 -9999
-9999 -9999 -9999 -9999 -9999 -9999 -9999 -9999 -9999 -9999 -9999 -9999 -9999 -9999 -9999 -9999 -9999 -9999 -9999 -9999 -9999 -9999 -9999 -9999 -9999 -9999 -9999 -9999 -9999 -9999 -9999 -9999 -9999 -9999 -9999 -9999 -9999 -9999 -9999 -9999 -9999 -9999 -9999 -9999 -9999 -9999 -9999 -9999 -9999 -9999 -9999 -9999 -9999 -9999 -9999 -9999 -9999 -9999 -9999 -9999 -9999 -9999 -9999 -9999 -9999 -9999 -9999 -9999 -9999 -9999 -9999 -9999 -9999 -9999 -9999 -9999 -9999 -9999 -9999 -9999 -9999 -9999 -9999 -9999 -9999 -9999 -9999 -9999 -9999 -9999 -9999 -9999 -9999 -9999 424 408 404 436 377 340 333 336 307 299 298 298 298 298 298 310 304 303 314 320 324 314 315 326 323 319 313 316 321 314 309 306 294 294 264 252 250 260 279 279 292 298 313 303 303 328 336 341 343 330 329 306 250 250 250 250 255 273 270 261 261 259 256 254 266 256 256 256 262 262 274 278 301 324 301 280 276 274 271 270 271 265 269 273 286 269 276 297 312 295 307 259 254 254 285 292 297 308 323 331 349 334 314 313 309 310 299 289 299 300 295 276 256 256 256 265 268 270 281 286 285 296 301 291 299 307 302 292 314 290 290 290 290 290 290 290 290 292 302 329 358 377 420 428 398 421 452 471 469 429 451 466 494 571 450 526 407 439 388 375 375 583 585 524 494 531 456 456 595 643 712 793 669 663 755 797 -9999 -9999 -9999 -9999 -9999 -9999 -9999 -9999 -9999 -9999 -9999 -9999 -9999 -9999 -9999 -9999 -9999 -9999
-9999 -9999 -9999 -9999 -9999 -9999 -9999 -9999 -9999 -9999 -9999 -9999 -9999 -9999 -9999 -9999 -9999 -9999 -9999 -9999 -9999 -9999 -9999 -9999 -9999 -9999 -9999 -9999 -9999 -9999 -9999 -9999 -9999 -9999 -9999 -9999 -9999 -9999 -9999 -9999 -9999 -9999 -9999 -9999 -9999 -9999 -9999 -9999 -9999 -9999 -9999 -9999 -9999 -9999 -9999 -9999 -9999 -9999 -9999 -9999 -9999 -9999 -9999 -9999 -9999 -9999 -9999 -9999 -9999 -9999 -9999 -9999 -9999 -9999 -9999 -9999 -9999 -9999 -9999 -9999 -9999 -9999 -9999 -9999 -9999 -9999 -9999 -9999 -9999 -9999 -9999 -9999 -9999 -9999 -9999 430 412 433 437 394 339 327 309 305 303 310 300 298 298 298 311 303 316 325 330 325 329 332 329 320 308 312 308 320 317 310 304 299 292 284 250 282 292 284 305 315 335 340 318 333 326 330 348 332 306 300 250 252 250 250 276 301 304 274 279 275 260 254 273 271 272 283 266 262 262 272 305 346 329 318 293 285 287 267 265 265 272 282 288 295 280 294 308 326 282 269 254 300 293 296 313 317 323 340 358 341 337 317 322 299 304 291 317 304 290 261 264 256 256 257 265 267 271 291 283 292 304 306 317 327 321 324 332 290 290 290 290 290 290 290 291 306 318 324 358 376 421 391 391 395 430 438 409 480 520 389 414 439 452 375 375 375 375 375 417 617 694 494 531 687 641 598 485 550 658 658 744 708 784 -9999 -9999 -9999 -9999 -9999 -9999 -9999 -9999 -9999 -9999 -9999 -9999 -9999 -9999 -9999 -9999 -9999 -9999 -9999
-9999 -9999 -9999 -9999 -9999 -9999 -9999 -9999 -9999 -9999 -9999 -9999 -9999 -9999 -9999 -9999 -9999 -9999 -9999 -9999 -9999 -9999 -9999 -9999 -9999 -9999 -9999 -9999 -9999 -9999 -9999 -9999 -9999 -9999 -9999 -9999 -9999 -9999 -9999 -9999 -9999 -9999 -9999 -9999 -9999 -9999 -9999 -9999 -9999 -9999 -9999 -9999 -9999 -9999 -9999 -9999 -9999 -9999 -9999 -9999 -9999 -9999 -9999 -9999 -9999 -9999 -9999 -9999 -9999 -9999 -9999 -9999 -9999 -9999 -9999 -9999 -9999 -9999 -9999 -9999 -9999 -9999 -9999 -9999 -9999 -9999 -9999 -9999 -9999 -9999 -9999 -9999 -9999 -9999 -9999 -9999 437 437 445 453 370 347 336 318 306 310 309 298 306 310 302 304 324 340 336 345 336 335 320 321 320 308 311 301 313 319 313 312 308 288 250 290 295 295 309 322 353 354 335 333 325 331 337 349 317 271 251 250 250 250 283 315 301 306 286 270 276 255 282 290 285 302 285 266 262 278 290 300 319 312 351 315 290 267 284 293 310 301 286 283 285 293 312 316 254 254 254 296 313 317 321 326 337 340 361 335 328 318 309 328 322 311 303 271 261 272 278 266 256 256 260 264 269 281 290 308 309 323 322 332 353 351 366 306 290 290 290 290 301 299 307 301 335 334 353 388 428 412 400 388 402 448 380 467 548 376 380 375 375 408 378 448 526 395 467 597 584 608 494 548 729 642 653 729 802 814 782 789 -9999 -9999 -9999 -9999 -9999 -9999 -9999 -9999 -9999 -9999 -9999 -9999 -9999 -9999 -9999 -9999 -9999 -9999 -9999 -9999
-9999 -9999 -9999 -9999 -9999 -9999 -9999 -9999 -9999 -9999 -9999 -9999 -9999 -9999 -9999 -9999 -9999 -9999 -9999 -9999 -9999 -9999 -9999 -9999 -9999 -9999 -9999 -9999 -9999 -9999 -9999 -9999 -9999 -9999 -9999 -9999 -9999 -9999 -9999 -9999 -9999 -9999 -9999 -9999 -9999 -9999 -9999 -9999 -9999 -9999 -9999 -9999 -9999 -9999 -9999 -9999 -9999 -9999 -9999 -9999 -9999 -9999 -9999 -9999 -9999 -9999 -9999 -9999 -9999 -9999 -9999 -9999 -9999 -9999 -9999 -9999 -9999 -9999 -9999 -9999 -9999 -9999 -9999 -9999 -9999 -9999 -9999 -9999 -9999 -9999 -9999 -9999 -9999 -9999 -9999 -9999 -9999 455 469 471 422 354 333 325 307 304 298 298 310 316 306 318 321 332 332 337 340 334 325 324 324 323 316 318 301 308 310 320 324 250 250 250 289 304 328 345 345 348 329 342 321 306 337 358 356 285 253 250 250 250 284 315 327 288 274 285 281 260 268 282 333 294 292 265 273 270 299 312 314 316 346 314 295 269 305 334 308 292 298 299 289 283 282 301 254 254 286 320 307 313 326 334 338 355 342 344 343 335 333 332 301 298 275 264 265 276 296 289 264 260 260 263 276 308 321 299 343 350 314 324 348 375 377 327 302 290 290 290 290 304 314 325 356 376 403 427 388 410 438 388 465 433 418 375 522 375 375 375 390 482 450 599 487 400 395 435 491 728 576 623 709 792 788 793 752 788 851 -9999 -9999 -9999 -9999 -9999 -9999 -9999 -9999 -9999 -9999 -9999 -9999 -9999 -9999 -9999 -9999 -9999 -9999 -9999 -9999 -9999
-9999 -9999 -9999 -9999 -9999 -9999 -9999 -9999 -9999 -9999 -9999 -9999 -9999 -9999 -9999 -9999 -9999 -9999 -9999 -9999 -9999 -9999 -9999 -9999 -9999 -9999 -9999 -9999 -9999 -9999 -9999 -9999 -9999 -9999 -9999 -9999 -9999 -9999 -9999 -9999 -9999 -9999 -9999 -9999 -9999 -9999 -9999 -9999 -9999 -9999 -9999 -9999 -9999 -9999 -9999 -9999 -9999 -9999 -9999 -9999 -9999 -9999 -9999 -9999 -9999 -9999 -9999 -9999 -9999 -9999 -9999 -9999 -9999 -9999 -9999 -9999 -9999 -9999 -9999 -9999 -9999 -9999 -9999 -9999 -9999 -9999 -9999 -9999 -9999 -9999 -9999 -9999 -9999 -9999 -9999 -9999 -9999 -9999 466 468 425 386 343 327 311 298 298 307 314 322 332 316 320 330 333 347 331 323 316 315 313 309 309 300 285 285 304 301 298 250 250 250 256 273 321 325 334 326 329 337 324 315 295 328 329 256 251 250 251 250 286 310 330 311 298 279 281 268 276 306 334 290 286 283 284 270 298 300 280 298 301 300 285 276 290 297 309 322 324 295 286 282 286 299 256 254 255 292 289 286 338 323 326 316 329 353 335 357 339 320 304 287 266 265 267 281 302 304 274 263 287 260 263 286 287 348 338 337 311 352 372 396 386 355 331 319 293 290 290 309 321 348 348 359 414 406 390 388 388 388 400 477 428 375 375 375 375 375 375 416 603 596 527 423 403 521 498 590 732 657 744 795 713 719 815 819 791 -9999 -9999 -9999 -9999 -9999 -9999 -9999 -9999 -9999 -9999 -9999 -9999 -9999 -9999 -9999 -9999 -9999 -9999 -9999 -9999 -9999
-9999 -9999 -9999 -9999 -9999 -9999 -9999 -9999 -9999 -9999 -9999 -9999 -9999 -9999 -9999 -9999 -9999 -9999 -9999 -9999 -9999 -9999 -9999 -9999 -9999 -9999 -9999 -9999 -9999 -9999 -9999 -9999 -9999 -9999 -9999 -9999 -9999 -9999 -9999 -9999 -9999 -9999 -9999 -9999 -9999 -9999 -9999 -9999 -9999 -9999 -9999 -9999 -9999 -9999 -9999 -9999 -9999 -9999 -9999 -9999 -9999 -9999 -9999 -9999 -9999 -9999 -9999 -9999 -9999 -9999 -9999 -9999 -9999 -9999 -9999 -9999 -9999 -9999 -9999 -9999 -9999 -9999 -9999 -9999 -9999 -9999 -9999 -9999 -9999 -9999 -9999 -9999 -9999 -9999 -9999 -9999 -9999 -9999 461 463 464 452 394 321 327 300 327 336 348 364 340 348 351 330 363 380 355 331 310 300 296 289 281 285 289 289 296 289 281 275 272 250 251 257 281 325 324 324 317 319 308 308 286 263 265 250 250 250 264 278 285 312 335 342 305 300 290 273 272 304 322 321 320 306 284 272 272 272 282 286 278 279 277 289 303 328 330 328 301 283 284 282 286 275 258 254 254 262 276 286 282 281 281 329 341 360 354 351 292 286 273 270 273 277 274 276 286 297 279 271 294 303 260 279 326 362 327 327 292 310 333 381 346 346 344 352 336 322 299 320 324 324 398 401 432 402 408 415 435 388 421 467 493 375 375 375 375 379 390 390 639 673 712 486 443 710 579 732 734 748 756 653 713 784 771 791 835 -9999 -9999 -9999 -9999 -9999 -9999 -9999 -9999 -9999 -9999 -9999 -9999 -9999 -9999 -9999 -9999 -9999 -9999 -9999 -9999 -9999
-9999 -9999 -9999 -9999 -9999 -9999 -9999 -9999 -9999 -9999 -9999 -9999 -9999 -9999 -9999 -9999 -9999 -9999 -9999 -9999 -9999 -9999 -9999 -9999 -9999 -9999 -9999 -9999 -9999 -9999 -9999 -9999 -9999 -9999 -9999 -9999 -9999 -9999 -9999 -9999 -9999 -9999 -9999 -9999 -9999 -9999 -9999 -9999 -9999 -9999 -9999 -9999 -9999 -9999 -9999 -9999 -9999 -9999 -9999 -9999 -9999 -9999 -9999 -9999 -9999 -9999 -9999 -9999 -9999 -9999 -9999 -9999 -9999 -9999 -9999 -9999 -9999 -9999 -9999 -9999 -9999 -9999 -9999 -9999 -9999 -9999 -9999 -9999 -9999 -9999 -9999 -9999 -9999 -9999 -9999 -9999 -9999 -9999 453 446 441 437 351 372 327 308 300 304 310 353 357 354 359 356 408 463 408 329 317 304 299 285 278 285 272 272 272 272 272 272 275 297 265 272 275 286 295 306 322 313 322 325 337 289 263 252 252 254 281 297 293 330 327 339 350 290 277 272 272 305 301 314 292 312 297 300 274 272 272 280 277 277 277 277 305 307 314 311 306 288 282 288 282 275 272 254 254 254 264 278 277 266 282 298 324 343 369 310 291 282 278 279 274 290 285 292 302 301 289 289 304 289 265 273 325 325 302 288 349 347 341 351 347 346 344 362 360 341 332 337 320 346 365 406 415 425 440 388 388 388 457 375 469 375 375 375 375 391 375 397 448 614 646 517 473 660 705 728 759 767 639 712 760 835 833 844 -9999 -9999 -9999 -9999 -9999 -9999 -9999 -9999 -9999 -9999 -9999 -9999 -9999 -9999 -9999 -9999 -9999 -9999 -9999 -9999 -9999 -9999
-9999 -9999 -9999 -9999 -9999 -9999 -9999 -9999 -9999 -9999 -9999 -9999 -9999 -9999 -9999 -9999 -9999 -9999 -9999 -9999 -9999 -9999 -9999 -9999 -9999 -9999 -9999 -9999 -9999 -9999 -9999 -9999 -9999 -9999 -9999 -9999 -9999 -9999 -9999 -9999 -9999 -9999 -9999 -9999 -9999 -9999 -9999 -9999 -9999 -9999 -9999 -9999 -9999 -9999 -9999 -9999 -9999 -9999 -9999 -9999 -9999 -9999 -9999 -9999 -9999 -9999 -9999 -9999 -9999 -9999 -9999 -9999 -9999 -9999 -9999 -9999 -9999 -9999 -9999 -9999 -9999 -9999 -9999 -9999 -9999 -9999 -9999 -9999 -9999 -9999 -9999 -9999 -9999 -9999 -9999 -9999 -9999 -9999 457 454 402 363 389 371 331 325 300 311 327 346 373 383 354 386 470 424 408 338 319 295 290 280 281 275 291 282 275 277 272 272 272 276 320 323 314 319 332 330 330 334 344 333 350 257 252 253 261 279 294 286 297 303 311 348 299 285 273 272 272 272 272 272 280 313 305 296 278 272 272 278 277 277 282 286 277 307 323 305 298 288 306 309 294 292 283 256 254 254 254 254 259 265 280 287 301 313 326 307 289 289 289 299 286 307 312 318 317 310 289 327 309 286 266 272 308 303 283 347 328 355 350 345 351 358 364 394 392 377 369 369 366 388 425 416 379 379 418 404 421 388 445 408 375 375 375 375 375 375 397 451 441 626 740 738 545 553 764 790 786 628 646 832 761 795 856 870 -9999 -9999 -9999 -9999 -9999 -9999 -9999 -9999 -9999 -9999 -9999 -9999 -9999 -9999 -9999 -9999 -9999 -9999 -9999 -9999 -9999 -9999
-9999 -9999 -9999 -9999 -9999 -9999 -9999 -9999 -9999 -9999 -9999 -9999 -9999 -9999 -9999 -9999 -9999 -9999 -9999 -9999 -9999 -9999 -9999 -9999 -9999 -9999 -9999 -9999 -9999 -9999 -9999 -9999 -9999 -9999 -9999 -9999 -9999 -9999 -9999 -9999 -9999 -9999 -9999 -9999 -9999 -9999 -9999 -9999 -9999 -9999 -9999 -9999 -9999 -9999 -9999 -9999 -9999 -9999 -9999 -9999 -9999 -9999 -9999 -9999 -9999 -9999 -9999 -9999 -9999 -9999 -9999 -9999 -9999 -9999 -9999 -9999 -9999 -9999 -9999 -9999 -9999 -9999 -9999 -9999 -9999 -9999 -9999 -9999 -9999 -9999 -9999 -9999 -9999 -9999 -9999 -9999 -9999 477 468 448 399 464 409 439 338 322 306 331 339 363 399 441 381 377 477 497 388 345 327 302 298 300 290 298 285 290 299 272 272 272 309 310 295 302 347 354 359 343 340 349 365 329 267 258 255 253 281 281 285 285 304 325 337 358 290 284 272 272 279 273 272 272 272 275 293 300 280 276 272 283 294 302 290 288 277 289 289 306 303 302 298 293 287 282 277 254 254 254 254 254 267 265 275 285 288 295 310 317 316 310 304 291 302 324 325 312 314 322 299 322 342 306 266 267 287 278 317 306 321 334 337 337 337 337 347 412 398 370 377 366 395 386 424 411 406 401 375 414 520 393 447 375 375 375 375 375 381 377 426 540 565 624 662 790 814 772 803 762 660 628 677 619 636 679 767 851 -9999 -9999 -9999 -9999 -9999 -9999 -9999 -9999 -9999 -9999 -9999 -9999 -9999 -9999 -9999 -9999 -9999 -9999 -9999 -9999 -9999 -9999
-9999 -9999 -9999 -9999 -9999 -9999 -9999 -9999 -9999 -9999 -9999 -9999 -9999 -9999 -9999 -9999 -9999 -9999 -9999 -9999 -9999 -9999 -9999 -9999 -9999 -9999 -9999 -9999 -9999 -9999 -9999 -9999 -9999 -9999 -9999 -9999 -9999 -9999 -9999 -9999 -9999 -9999 -9999 -9999 -9999 -9999 -9999 -9999 -9999 -9999 -9999 -9999 -9999 -9999 -9999 -9999 -9999 -9999 -9999 -9999 -9999 -9999 -9999 -9999 -9999 -9999 -9999 -9999 -9999 -9999 -9999 -9999 -9999 -9999 -9999 -9999 -9999 -9999 -9999 -9999 -9999 -9999 -9999 -9999 -9999 -9999 -9999 -9999 -9999 -9999 -9999 -9999 -9999 -9999 -9999 -9999 -9999 -9999 -9999 464 439 477 425 482 355 321 355 381 348 374 405 494 436 421 509 413 365 314 314 303 296 308 298 303 306 314 296 304 272 272 308 347 336 334 340 354 362 354 357 364 322 258 260 255 255 256 284 279 290 304 308 323 326 323 283 279 273 293 283 280 272 285 272 272 291 302 290 276 272 294 334 320 310 300 287 281 309 323 314 329 311 311 290 290 282 276 270 254 254 255 254 272 287 279 283 307 308 317 325 330 324 318 328 322 329 331 347 315 299 349 340 327 336 266 266 273 299 322 338 338 351 351 346 361 395 368 353 362 432 422 398 389 441 387 420 391 434 375 422 422 415 375 375 438 449 472 507 405 451 546 696 721 805 753 723 666 530 492 492 523 534 711 796 837 792 849 -9999 -9999 -9999 -9999 -9999 -9999 -9999 -9999 -9999 -9999 -9999 -9999 -9999 -9999 -9999 -9999 -9999 -9999 -9999 -9999 -9999 -9999
-9999 -9999 -9999 -9999 -9999 -9999 -9999 -9999 -9999 -9999 -9999 -9999 -9999 -9999 -9999 -9999 -9999 -9999 -9999 -9999 -9999 -9999 -9999 -9999 -9999 -9999 -9999 -9999 -9999 -9999 -9999 -9999 -9999 -9999 -9999 -9999 -9999 -9999 -9999 -9999 -9999 -9999 -9999 -9999 -9999 -9999 -9999 -9999 -9999 -9999 -9999 -9999 -9999 -9999 -9999 -9999 -9999 -9999 -9999 -9999 -9999 -9999 -9999 -9999 -9999 -9999 -9999 -9999 -9999 -9999 -9999 -9999 -9999 -9999 -9999 -9999 -9999 -9999 -9999 -9999 -9999 -9999 -9999 -9999 -9999 -9999 -9999 -9999 -9999 -9999 -9999 -9999 -9999 -9999 -9999 -9999 -9999 -9999 -9999 471 457 491 482 489 361 328 364 470 387 355 400 437 530 506 456 367 330 305 298 307 300 295 300 293 294 306 291 276 272 272 272 298 326 327 334 352 372 364 357 356 324 263 257 257 256 260 271 282 296 300 300 321 322 317 324 315 282 290 304 293 272 294 281 282 283 305 294 278 272 301 407 373 317 325 308 284 293 314 335 318 306 306 295 290 293 284 254 254 261 256 259 273 259 293 276 293 326 315 329 333 318 338 342 338 352 345 343 299 305 357 356 348 317 299 279 270 270 277 280 306 346 313 350 391 345 319 330 393 377 399 371 355 440 439 385 412 484 446 375 375 375 408 455 431 454 512 607 534 660 699 727 776 641 729 525 568 436 582 684 724 581 804 858 871 818 918 -9999 -9999 -9999 -9999 -9999 -9999 -9999 -9999 -9999 -9999 -9999 -9999 -9999 -9999 -9999 -9999 -9999 -9999 -9999 -9999 -9999 -9999
-9999 -9999 -9999 -9999 -9999 -9999 -9999 -9999 -9999 -9999 -9999 -9999 -9999 -9999 -9999 -9999 -9999 -9999 -9999 -9999 -9999 -9999 -9999 -9999 -9999 -9999 -9999 -9999 -9999 -9999 -9999 -9999 -9999 -9999 -9999 -9999 -9999 -9999 -9999 -9999 -9999 -9999 -9999 -9999 -9999 -9999 -9999 -9999 -9999 -9999 -9999 -9999 -9999 -9999 -9999 -9999 -9999 -9999 -9999 -9999 -9999 -9999 -9999 -9999 -9999 -9999 -9999 -9999 -9999 -9999 -9999 -9999 -9999 -9999 -9999 -9999 -9999 -9999 -9999 -9999 -9999 -9999 -9999 -9999 -9999 -9999 -9999 -9999 -9999 -9999 -9999 -9999 -9999 -9999 -9999 -9999 -9999 -9999 -9999 491 495 451 367 373 336 328 330 466 470 430 393 381 431 460 402 339 319 301 292 289 285 291 295 290 291 303 298 282 272 272 272 276 317 310 311 331 359 367 352 286 270 258 257 258 257 267 283 287 295 303 306 317 320 327 326 327 311 322 300 273 272 295 288 285 282 310 294 280 272 313 344 335 334 335 313 298 291 316 322 307 295 293 276 274 274 274 254 254 259 259 269 259 278 280 271 274 303 309 334 333 327 341 350 349 316 311 311 326 339 375 347 337 310 304 314 331 305 272 272 278 297 287 338 320 310 337 365 365 365 414 371 355 378 444 423 385 407 418 375 375 375 375 375 419 587 608 617 662 658 675 703 699 478 532 475 436 453 509 529 710 805 679 733 789 890 -9999 -9999 -9999 -9999 -9999 -9999 -9999 -9999 -9999 -9999 -9999 -9999 -9999 -9999 -9999 -9999 -9999 -9999 -9999 -9999 -9999 -9999 -9999
-9999 -9999 -9999 -9999 -9999 -9999 -9999 -9999 -9999 -9999 -9999 -9999 -9999 -9999 -9999 -9999 -9999 -9999 -9999 -9999 -9999 -9999 -9999 -9999 -9999 -9999 -9999 -9999 -9999 -9999 -9999 -9999 -9999 -9999 -9999 -9999 -9999 -9999 -9999 -9999 -9999 -9999 -9999 -9999 -9999 -9999 -9999 -9999 -9999 -9999 -9999 -9999 -9999 -9999 -9999 -9999 -9999 -9999 -9999 -9999 -9999 -9999 -9999 -9999 -9999 -9999 -9999 -9999 -9999 -9999 -9999 -9999 -9999 -9999 -9999 -9999 -9999 -9999 -9999 -9999 -9999 -9999 -9999 -9999 -9999 -9999 -9999 -9999 -9999 -9999 -9999 -9999 -9999 -9999 -9999 -9999 -9999 -9999 -9999 437 488 406 347 343 347 337 328 442 487 476 360 343 357 363 346 318 314 305 303 300 293 285 301 294 287 281 315 310 281 272 272 298 300 305 312 324 356 367 362 305 272 258 257 257 261 268 282 297 291 304 303 316 328 333 343 328 337 328 306 289 279 288 292 288 282 305 297 295 278 304 322 326 324 332 317 302 322 328 320 309 293 295 284 272 264 271 274 254 258 259 262 270 259 270 262 284 285 286 316 343 345 327 340 351 360 334 330 345 357 357 318 304 304 304 334 337 344 306 279 272 275 286 298 296 310 351 336 330 398 417 347 373 384 486 506 467 329 329 399 429 472 397 392 625 492 566 519 519 606 661 704 480 431 455 410 410 566 731 706 680 861 886 756 872 819 -9999 -9999 -9999 -9999 -9999 -9999 -9999 -9999 -9999 -9999 -9999 -9999 -9999 -9999 -9999 -9999 -9999 -9999 -9999 -9999 -9999 -9999 -9999
-9999 -9999 -9999 -9999 -9999 -9999 -9999 -9999 -9999 -9999 -9999 -9999 -9999 -9999 -9999 -9999 -9999 -9999 -9999 -9999 -9999 -9999 -9999 -9999 -9999 -9999 -9999 -9999 -9999 -9999 -9999 -9999 -9999 -9999 -9999 -9999 -9999 -9999 -9999 -9999 -9999 -9999 -9999 -9999 -9999 -9999 -9999 -9999 -9999 -9999 -9999 -9999 -9999 -9999 -9999 -9999 -9999 -9999 -9999 -9999 -9999 -9999 -9999 -9999 -9999 -9999 -9999 -9999 -9999 -9999 -9999 -9999 -9999 -9999 -9999 -9999 -9999 -9999 -9999 -9999 -9999 -9999 -9999 -9999 -9999 -9999 -9999 -9999 -9999 -9999 -9999 -9999 -9999 -9999 -9999 -9999 -9999 -9999 -9999 433 406 386 362 364 361 355 344 358 475 478 364 347 326 320 319 309 304 300 299 292 291 276 282 286 288 274 273 272 272 272 272 272 293 325 332 340 353 366 370 336 267 260 258 257 267 271 281 295 299 305 304 313 325 336 334 333 342 319 317 302 285 285 308 297 294 311 304 294 296 299 321 326 314 333 325 313 325 312 298 285 290 271 270 265 261 261 261 269 255 259 264 281 283 262 276 288 276 305 309 322 337 350 348 352 350 333 356 377 366 318 346 344 319 318 328 352 335 328 363 360 272 272 277 305 316 296 330 378 402 374 342 314 394 458 402 364 329 369 434 575 600 547 595 597 492 518 640 627 657 683 682 455 413 410 421 424 468 545 601 792 850 781 593 725 795 872 -9999 -9999 -9999 -9999 -9999 -9999 -9999 -9999 -9999 -9999 -9999 -9999 -9999 -9999 -9999 -9999 -9999 -9999 -9999 -9999 -9999 -9999
-9999 -9999 -9999 -9999 -9999 -9999 -9999 -9999 -9999 -9999 -9999 -9999 -9999 -9999 -9999 -9999 -9999 -9999 -9999 -9999 -9999 -9999 -9999 -9999 -9999 -9999 -9999 -9999 -9999 -9999 -9999 -9999 -9999 -9999 -9999 -9999 -9999 -9999 -9999 -9999 -9999 -9999 -9999 -9999 -9999 -9999 -9999 -9999 -9999 -9999 -9999 -9999 -9999 -9999 -9999 -9999 -9999 -9999 -9999 -9999 -9999 -9999 -9999 -9999 -9999 -9999 -9999 -9999 -9999 -9999 -9999 -9999 -9999 -9999 -9999 -9999 -9999 -9999 -9999 -9999 -9999 -9999 -9999 -9999 -9999 -9999 -9999 -9999 -9999 -9999 -9999 -9999 -9999 -9999 -9999 -9999 -9999 -9999 -9999 430 470 480 426 366 355 360 351 354 428 494 398 370 339 323 312 304 298 298 295 284 277 274 274 274 274 279 272 272 272 272 272 293 321 340 308 335 373 386 367 274 260 258 259 260 267 271 282 302 300 310 319 322 335 339 347 352 352 348 318 317 300 321 309 304 294 323 312 296 294 301 306 299 299 329 330 322 319 307 310 285 279 284 269 265 261 265 281 281 261 255 266 286 264 262 282 276 299 286 299 289 301 317 351 348 361 363 362 368 346 384 344 322 318 328 346 348 334 342 359 331 303 280 273 284 279 304 337 327 378 400 337 306 320 321 309 309 405 448 482 594 578 473 473 529 570 625 636 714 687 624 514 410 389 389 461 468 424 465 491 572 605 568 537 583 648 -9999 -9999 -9999 -9999 -9999 -9999 -9999 -9999 -9999 -9999 -9999 -9999 -9999 -9999 -9999 -9999 -9999 -9999 -9999 -9999 -9999 -9999 -9999
-9999 -9999 -9999 -9999 -9999 -9999 -9999 -9999 -9999 -9999 -9999 -9999 -9999 -9999 -9999 -9999 -9999 -9999 -9999 -9999 -9999 -9999 -9999 -9999 -9999 -9999 -9999 -9999 -9999 -9999 -9999 -9999 -9999 -9999 -9999 -9999 -9999 -9999 -9999 -9999 -9999 -9999 -9999 -9999 -9999 -9999 -9999 -9999 -9999 -9999 -9999 -9999 -9999 -9999 -9999 -9999 -9999 -9999 -9999 -9999 -9999 -9999 -9999 -9999 -9999 -9999 -9999 -9999 -9999 -9999 -9999 -9999 -9999 -9999 -9999 -9999 -9999 -9999 -9999 -9999 -9999 -9999 -9999 -9999 -9999 -9999 -9999 -9999 -9999 -9999 -9999 -9999 -9999 -9999 -9999 -9999 -9999 -9999 -9999 472 465 472 452 374 360 365 354 369 397 457 445 377 389 330 318 305 307 304 297 288 284 274 279 279 274 275 283 273 272 272 272 273 320 308 323 355 363 363 324 274 261 261 261 261 263 278 285 293 297 307 323 327 340 344 351 357 353 348 337 317 326 331 311 305 312 328 321 295 294 294 298 303 311 331 333 327 323 304 288 300 289 286 275 276 271 279 271 274 275 258 268 287 268 264 280 286 277 292 302 289 299 279 313 322 328 364 360 362 381 348 318 335 318 340 348 339 334 347 378 364 294 290 286 277 277 278 322 361 359 331 304 297 292 309 316 335 457 502 570 473 473 478 550 619 545 545 629 681 676 495 421 389 392 457 587 623 513 424 452 452 460 482 600 697 640 -9999 -9999 -9999 -9999 -9999 -9999 -9999 -9999 -9999 -9999 -9999 -9999 -9999 -9999 -9999 -9999 -9999 -9999 -9999 -9999 -9999 -9999 -9999
-9999 -9999 -9999 -9999 -9999 -9999 -9999 -9999 -9999 -9999 -9999 -9999 -9999 -9999 -9999 -9999 -9999 -9999 -9999 -9999 -9999 -9999 -9999 -9999 -9999 -9999 -9999 -9999 -9999 -9999 -9999 -9999 -9999 -9999 -9999 -9999 -9999 -9999 -9999 -9999 -9999 -9999 -9999 -9999 -9999 -9999 -9999 -9999 -9999 -9999 -9999 -9999 -9999 -9999 -9999 -9999 -9999 -9999 -9999 -9999 -9999 -9999 -9999 -9999 -9999 -9999 -9999 -9999 -9999 -9999 -9999 -9999 -9999 -9999 -9999 -9999 -9999 -9999 -9999 -9999 -9999 -9999 -9999 -9999 -9999 -9999 -9999 -9999 -9999 -9999 -9999 -9999 -9999 -9999 -9999 -9999 -9999 -9999 -9999 -9999 -9999 484 418 365 360 363 366 378 388 386 454 396 437 341 318 328 307 309 291 288 284 284 292 276 279 290 294 272 272 272 272 276 275 300 348 336 364 375 357 310 261 261 261 262 272 279 280 295 298 314 323 332 342 357 353 344 351 347 337 334 342 315 333 325 313 329 317 308 297 304 295 304 303 313 317 322 300 298 305 300 298 312 301 300 285 279 289 307 300 259 274 303 289 296 277 277 286 290 292 277 277 294 301 289 309 326 316 370 346 369 346 318 320 344 354 334 367 384 348 330 296 346 309 291 286 278 287 331 350 288 288 290 304 333 351 392 463 573 473 481 473 547 566 554 656 676 604 619 512 417 374 374 477 502 625 547 505 470 464 479 592 543 578 664 779 -9999 -9999 -9999 -9999 -9999 -9999 -9999 -9999 -9999 -9999 -9999 -9999 -9999 -9999 -9999 -9999 -9999 -9999 -9999 -9999 -9999 -9999 -9999
-9999 -9999 -9999 -9999 -9999 -9999 -9999 -9999 -9999 -9999 -9999 -9999 -9999 -9999 -9999 -9999 -9999 -9999 -9999 -9999 -9999 -9999 -9999 -9999 -9999 -9999 -9999 -9999 -9999 -9999 -9999 -9999 -9999 -9999 -9999 -9999 -9999 -9999 -9999 -9999 -9999 -9999 -9999 -9999 -9999 -9999 -9999 -9999 -9999 -9999 -9999 -9999 -9999 -9999 -9999 -9999 -9999 -9999 -9999 -9999 -9999 -9999 -9999 -9999 -9999 -9999 -9999 -9999 -9999 -9999 -9999 -9999 -9999 -9999 -9999 -9999 -9999 -9999 -9999 -9999 -9999 -9999 -9999 -9999 -9999 -9999 -9999 -9999 -9999 -9999 -9999 -9999 -9999 -9999 -9999 -9999 -9999 -9999 -9999 -9999 -9999 473 404 374 364 370 388 385 326 327 343 360 365 328 317 310 303 296 290 288 298 290 289 290 290 272 272 287 272 282 286 279 282 292 318 311 342 370 353 345 261 262 261 265 275 281 282 293 306 309 319 326 340 340 341 339 355 355 364 356 334 340 327 317 313 328 310 308 304 304 295 311 311 309 322 317 312 325 318 307 311 316 321 320 303 313 301 282 271 259 287 301 305 306 285 279 277 277 281 277 288 299 285 285 284 295 293 330 373 377 323 356 339 352 371 361 381 391 334 316 327 353 319 319 293 294 292 287 287 296 308 288 382 361 376 448 526 389 389 514 547 473 517 547 546 574 628 453 402 387 374 374 415 470 473 461 446 456 463 480 543 595 671 792 857 -9999 -9999 -9999 -9999 -9999 -9999 -9999 -9999 -9999 -9999 -9999 -9999 -9999 -9999 -9999 -9999 -9999 -9999 -9999 -9999 -9999 -9999 -9999
-9999 -9999 -9999 -9999 -9999 -9999 -9999 -9999 -9999 -9999 -9999 -9999 -9999 -9999 -9999 -9999 -9999 -9999 -9999 -9999 -9999 -9999 -9999 -9999 -9999 -9999 -9999 -9999 -9999 -9999 -9999 -9999 -9999 -9999 -9999 -9999 -9999 -9999 -9999 -9999 -9999 -9999 -9999 -9999 -9999 -9999 -9999 -9999 -9999 -9999 -9999 -9999 -9999 -9999 -9999 -9999 -9999 -9999 -9999 -9999 -9999 -9999 -9999 -9999 -9999 -9999 -9999 -9999 -9999 -9999 -9999 -9999 -9999 -9999 -9999 -9999 -9999 -9999 -9999 -9999 -9999 -9999 -9999 -9999 -9999 -9999 -9999 -9999 -9999 -9999 -9999 -9999 -9999 -9999 -9999 -9999 -9999 -9999 -9999 -9999 -9999 468 418 387 383 367 328 320 313 316 321 318 313 335 322 316 301 292 296 294 298 300 315 307 294 272 274 303 301 272 305 309 313 310 298 301 319 348 332 333 321 261 263 263 273 283 285 290 295 298 317 311 324 333 333 344 341 349 359 352 356 339 337 331 332 328 329 304 313 312 307 314 322 318 322 330 335 324 313 322 337 315 311 310 309 316 313 287 308 261 271 289 299 286 313 299 277 277 277 277 280 283 277 277 277 283 303 313 325 341 345 384 354 361 385 371 401 373 374 339 358 421 377 302 315 317 307 293 305 314 325 364 489 514 541 521 389 390 389 526 525 567 525 542 625 544 510 425 380 374 374 400 418 452 442 446 482 498 496 492 529 563 580 722 -9999 -9999 -9999 -9999 -9999 -9999 -9999 -9999 -9999 -9999 -9999 -9999 -9999 -9999 -9999 -9999 -9999 -9999 -9999 -9999 -9999 -9999 -9999 -9999
-9999 -9999 -9999 -9999 -9999 -9999 -9999 -9999 -9999 -9999 -9999 -9999 -9999 -9999 -9999 -9999 -9999 -9999 -9999 -9999 -9999 -9999 -9999 -9999 -9999 -9999 -9999 -9999 -9999 -9999 -9999 -9999 -9999 -9999 -9999 -9999 -9999 -9999 -9999 -9999 -9999 -9999 -9999 -9999 -9999 -9999 -9999 -9999 -9999 -9999 -9999 -9999 -9999 -9999 -9999 -9999 -9999 -9999 -9999 -9999 -9999 -9999 -9999 -9999 -9999 -9999 -9999 -9999 -9999 -9999 -9999 -9999 -9999 -9999 -9999 -9999 -9999 -9999 -9999 -9999 -9999 -9999 -9999 -9999 -9999 -9999 -9999 -9999 -9999 -9999 -9999 -9999 -9999 -9999 -9999 -9999 -9999 -9999 -9999 -9999 -9999 -9999 -9999 388 349 339 340 326 319 308 306 317 298 294 297 311 299 315 306 305 321 316 317 322 274 272 272 308 290 272 272 272 316 316 287 345 365 332 338 360 348 277 264 263 263 266 285 288 294 295 307 323 328 341 343 343 348 357 351 367 368 337 342 352 344 342 333 333 331 312 309 308 331 338 338 345 346 332 326 342 333 336 317 325 315 330 319 294 284 267 265 266 274 296 284 284 299 277 277 277 277 277 277 277 277 278 298 310 341 354 343 369 376 390 383 389 357 339 339 376 401 364 340 314 360 360 379 428 357 305 337 353 399 465 561 456 340 483 494 456 596 632 607 555 471 425 405 385 374 374 384 402 410 414 469 509 541 545 549 515 554 589 615 639 -9999 -9999 -9999 -9999 -9999 -9999 -9999 -9999 -9999 -9999 -9999 -9999 -9999 -9999 -9999 -9999 -9999 -9999 -9999 -9999 -9999 -9999 -9999 -9999
-9999 -9999 -9999 -9999 -9999 -9999 -9999 -9999 -9999 -9999 -9999 -9999 -9999 -9999 -9999 -9999 -9999 -9999 -9999 -9999 -9999 -9999 -9999 -9999 -9999 -9999 -9999 -9999 -9999 -9999 -9999 -9999 -9999 -9999 -9999 -9999 -9999 -9999 -9999 -9999 -9999 -9999 -9999 -9999 -9999 -9999 -9999 -9999 -9999 -9999 -9999 -9999 -9999 -9999 -9999 -9999 -9999 -9999 -9999 -9999 -9999 -9999 -9999 -9999 -9999 -9999 -9999 -9999 -9999 -9999 -9999 -9999 -9999 -9999 -9999 -9999 -9999 -9999 -9999 -9999 -9999 -9999 -9999 -9999 -9999 -9999 -9999 -9999 -9999 -9999 -9999 -9999 -9999 -9999 -9999 -9999 -9999 -9999 -9999 -9999 -9999 -9999 -9999 371 373 370 360 323 320 325 321 303 298 293 293 293 309 318 319 315 317 324 340 349 272 272 272 311 308 284 283 285 274 274 293 319 322 304 350 366 342 266 264 266 268 280 268 268 292 296 303 318 329 336 345 348 358 349 355 368 366 356 353 336 347 351 347 339 338 339 325 308 336 349 356 350 359 346 343 334 340 341 330 335 314 308 294 269 269 290 265 265 275 274 276 280 280 284 287 277 277 277 277 277 279 306 319 298 298 316 339 379 384 386 393 385 379 377 339 403 439 371 326 327 367 411 566 536 450 326 305 431 521 578 397 339 322 381 497 506 603 539 464 403 384 374 374 374 379 393 408 405 439 440 455 486 544 562 584 565 556 612 680 814 -9999 -9999 -9999 -9999 -9999 -9999 -9999 -9999 -9999 -9999 -9999 -9999 -9999 -9999 -9999 -9999 -9999 -9999 -9999 -9999 -9999 -9999 -9999 -9999
-9999 -9999 -9999 -9999 -9999 -9999 -9999 -9999 -9999 -9999 -9999 -9999 -9999 -9999 -9999 -9999 -9999 -9999 -9999 -9999 -9999 -9999 -9999 -9999 -9999 -9999 -9999 -9999 -9999 -9999 -9999 -9999 -9999 -9999 -9999 -9999 -9999 -9999 -9999 -9999 -9999 -9999 -9999 -9999 -9999 -9999 -9999 -9999 -9999 -9999 -9999 -9999 -9999 -9999 -9999 -9999 -9999 -9999 -9999 -9999 -9999 -9999 -9999 -9999 -9999 -9999 -9999 -9999 -9999 -9999 -9999 -9999 -9999 -9999 -9999 -9999 -9999 -9999 -9999 -9999 -9999 -9999 -9999 -9999 -9999 -9999 -9999 -9999 -9999 -9999 -9999 -9999 -9999 -9999 -9999 -9999 -9999 -9999 -9999 -9999 -9999 -9999 -9999 -9999 384 387 341 338 316 308 303 299 294 293 293 293 301 308 307 305 316 331 362 350 272 275 280 285 295 302 299 305 290 274 274 313 304 316 351 354 314 293 294 286 285 279 270 268 268 292 298 311 320 333 345 355 359 352 357 359 358 356 340 339 336 331 344 359 351 352 341 343 340 348 361 363 371 363 352 344 345 314 332 320 312 276 272 270 278 300 265 265 275 277 278 284 298 303 299 282 277 278 282 285 293 288 326 336 315 350 327 352 352 352 388 379 413 357 339 443 407 358 332 355 470 534 591 470 399 323 305 307 385 369 422 309 335 436 619 624 526 448 375 374 374 374 374 374 398 409 484 439 489 474 440 490 565 581 628 627 602 618 643 705 -9999 -9999 -9999 -9999 -9999 -9999 -9999 -9999 -9999 -9999 -9999 -9999 -9999 -9999 -9999 -9999 -9999 -9999 -9999 -9999 -9999 -9999 -9999 -9999
-9999 -9999 -9999 -9999 -9999 -9999 -9999 -9999 -9999 -9999 -9999 -9999 -9999 -9999 -9999 -9999 -9999 -9999 -9999 -9999 -9999 -9999 -9999 -9999 -9999 -9999 -9999 -9999 -9999 -9999 -9999 -9999 -9999 -9999 -9999 -9999 -9999 -9999 -9999 -9999 -9999 -9999 -9999 -9999 -9999 -9999 -9999 -9999 -9999 -9999 -9999 -9999 -9999 -9999 -9999 -9999 -9999 -9999 -9999 -9999 -9999 -9999 -9999 -9999 -9999 -9999 -9999 -9999 -9999 -9999 -9999 -9999 -9999 -9999 -9999 -9999 -9999 -9999 -9999 -9999 -9999 -9999 -9999 -9999 -9999 -9999 -9999 -9999 -9999 -9999 -9999 -9999 -9999 -9999 -9999 -9999 -9999 -9999 -9999 -9999 -9999 -9999 -9999 -9999 -9999 379 368 340 321 308 303 303 302 300 293 296 297 309 324 305 314 340 356 315 281 272 272 280 294 299 309 318 322 281 278 274 284 301 315 322 286 296 281 314 323 289 281 271 271 280 294 311 321 323 343 351 347 363 358 362 355 351 335 336 324 339 366 353 369 352 351 341 340 348 374 376 383 368 356 348 344 317 314 282 276 270 270 274 290 303 265 267 269 285 282 304 306 311 285 277 289 291 293 296 289 316 313 338 361 357 365 378 407 404 391 408 433 358 391 404 362 345 376 455 458 558 590 399 400 376 305 305 305 306 305 343 397 545 414 432 383 374 374 374 374 436 430 374 470 451 449 479 479 509 471 440 533 555 595 614 638 649 629 696 -9999 -9999 -9999 -9999 -9999 -9999 -9999 -9999 -9999 -9999 -9999 -9999 -9999 -9999 -9999 -9999 -9999 -9999 -9999 -9999 -9999 -9999 -9999 -9999
-9999 -9999 -9999 -9999 -9999 -9999 -9999 -9999 -9999 -9999 -9999 -9999 -9999 -9999 -9999 -9999 -9999 -9999 -9999 -9999 -9999 -9999 -9999 -9999 -9999 -9999 -9999 -9999 -9999 -9999 -9999 -9999 -9999 -9999 -9999 -9999 -9999 -9999 -9999 -9999 -9999 -9999 -9999 -9999 -9999 -9999 -9999 -9999 -9999 -9999 -9999 -9999 -9999 -9999 -9999 -9999 -9999 -9999 -9999 -9999 -9999 -9999 -9999 -9999 -9999 -9999 -9999 -9999 -9999 -9999 -9999 -9999 -9999 -9999 -9999 -9999 -9999 -9999 -9999 -9999 -9999 -9999 -9999 -9999 -9999 -9999 -9999 -9999 -9999 -9999 -9999 -9999 -9999 -9999 -9999 -9999 -9999 -9999 -9999 -9999 -9999 -9999 -9999 -9999 -9999 385 372 347 323 302 301 302 296 296 293 297 298 301 310 305 311 331 359 346 329 300 272 272 299 289 318 323 324 307 283 285 278 278 278 278 278 278 288 323 380 313 289 286 271 271 273 298 320 307 310 324 343 347 350 364 353 332 337 330 322 374 371 365 371 357 342 342 340 355 361 375 380 364 342 317 295 286 280 278 276 270 276 271 289 286 267 272 270 284 294 302 308 316 317 312 298 304 312 315 319 318 347 333 358 395 410 399 381 403 402 410 423 378 382 430 402 398 387 398 501 502 520 423 448 435 367 305 305 305 305 305 307 374 374 374 374 374 374 435 406 470 457 390 474 496 503 515 531 507 534 506 467 509 578 642 641 685 683 693 757 -9999 -9999 -9999 -9999 -9999 -9999 -9999 -9999 -9999 -9999 -9999 -9999 -9999 -9999 -9999 -9999 -9999 -9999 -9999 -9999 -9999 -9999 -9999
-9999 -9999 -9999 -9999 -9999 -9999 -9999 -9999 -9999 -9999 -9999 -9999 -9999 -9999 -9999 -9999 -9999 -9999 -9999 -9999 -9999 -9999 -9999 -9999 -9999 -9999 -9999 -9999 -9999 -9999 -9999 -9999 -9999 -9999 -9999 -9999 -9999 -9999 -9999 -9999 -9999 -9999 -9999 -9999 -9999 -9999 -9999 -9999 -9999 -9999 -9999 -9999 -9999 -9999 -9999 -9999 -9999 -9999 -9999 -9999 -9999 -9999 -9999 -9999 -9999 -9999 -9999 -9999 -9999 -9999 -9999 -9999 -9999 -9999 -9999 -9999 -9999 -9999 -9999 -9999 -9999 -9999 -9999 -9999 -9999 -9999 -9999 -9999 -9999 -9999 -9999 -9999 -9999 -9999 -9999 -9999 -9999 -9999 -9999 -9999 351 357 373 371 382 366 342 316 311 301 301 299 300 307 298 289 289 289 296 291 291 331 313 333 301 272 272 272 272 277 280 319 324 311 306 335 295 295 278 278 282 278 288 349 321 307 291 282 271 271 272 290 307 312 333 338 344 341 352 347 336 317 320 317 326 344 348 357 357 348 341 340 343 360 363 375 376 357 337 349 346 334 301 275 275 285 275 278 318 291 277 270 277 272 304 298 311 302 314 316 328 320 325 328 329 353 360 377 378 401 406 362 386 383 402 402 430 408 411 457 458 437 442 456 449 377 392 458 473 452 305 305 305 327 337 360 363 375 374 374 406 399 413 483 461 432 460 431 445 480 503 620 684 548 559 547 537 567 551 631 620 635 709 727 766 -9999 -9999 -9999 -9999 -9999 -9999 -9999 -9999 -9999 -9999 -9999 -9999 -9999 -9999 -9999 -9999 -9999 -9999 -9999 -9999 -9999 -9999 -9999
-9999 -9999 -9999 -9999 -9999 -9999 -9999 -9999 -9999 -9999 -9999 -9999 -9999 -9999 -9999 -9999 -9999 -9999 -9999 -9999 -9999 -9999 -9999 -9999 -9999 -9999 -9999 -9999 -9999 -9999 -9999 -9999 -9999 -9999 -9999 -9999 -9999 -9999 -9999 -9999 -9999 -9999 -9999 -9999 -9999 -9999 -9999 -9999 -9999 -9999 -9999 -9999 -9999 -9999 -9999 -9999 -9999 -9999 -9999 -9999 -9999 -9999 -9999 -9999 -9999 -9999 -9999 -9999 -9999 -9999 -9999 -9999 -9999 -9999 -9999 -9999 -9999 -9999 -9999 -9999 -9999 -9999 -9999 -9999 -9999 -9999 -9999 -9999 -9999 -9999 -9999 -9999 -9999 -9999 -9999 -9999 -9999 -9999 -9999 -9999 329 336 358 347 326 345 328 323 306 306 307 306 301 298 295 304 300 289 299 291 292 303 297 274 272 272 272 272 272 272 285 329 335 321 344 351 303 293 282 313 291 287 286 286 323 367 316 283 271 272 275 274 291 309 325 337 340 339 332 317 317 324 317 317 326 331 342 350 352 340 340 340 340 340 340 355 349 354 361 355 332 290 284 323 320 283 280 310 283 274 274 277 275 277 288 303 300 306 331 330 324 341 345 353 361 362 388 353 360 381 376 361 374 385 407 430 439 463 466 422 415 412 452 375 419 368 347 344 345 331 305 305 305 345 361 362 389 404 384 374 420 451 460 462 470 454 491 481 431 467 474 551 577 547 579 561 584 566 551 551 553 616 688 718 765 -9999 -9999 -9999 -9999 -9999 -9999 -9999 -9999 -9999 -9999 -9999 -9999 -9999 -9999 -9999 -9999 -9999 -9999 -9999 -9999 -9999 -9999 -9999
-9999 -9999 -9999 -9999 -9999 -9999 -9999 -9999 -9999 -9999 -9999 -9999 -9999 -9999 -9999 -9999 -9999 -9999 -9999 -9999 -9999 -9999 -9999 -9999 -9999 -9999 -9999 -9999 -9999 -9999 -9999 -9999 -9999 -9999 -9999 -9999 -9999 -9999 -9999 -9999 -9999 -9999 -9999 -9999 -9999 -9999 -9999 -9999 -9999 -9999 -9999 -9999 -9999 -9999 -9999 -9999 -9999 -9999 -9999 -9999 -9999 -9999 -9999 -9999 -9999 -9999 -9999 -9999 -9999 -9999 -9999 -9999 -9999 -9999 -9999 -9999 -9999 -9999 -9999 -9999 -9999 -9999 -9999 -9999 -9999 -9999 -9999 -9999 -9999 -9999 -9999 -9999 -9999 -9999 -9999 -9999 -9999 -9999 -9999 -9999 329 329 324 321 322 324 320 337 323 318 311 309 310 300 294 290 293 290 289 283 294 274 274 285 285 279 296 292 291 272 276 314 312 326 364 365 303 282 293 341 347 345 286 286 319 304 361 291 275 273 276 275 278 284 318 313 313 313 317 343 350 344 341 320 332 345 343 356 355 353 342 340 340 340 345 354 353 349 350 338 314 328 334 323 301 304 311 314 301 299 301 305 291 286 277 284 300 305 313 326 340 343 367 354 363 353 360 344 351 369 349 356 366 386 410 448 465 463 449 430 417 357 409 364 349 337 331 322 320 322 305 305 305 349 377 421 398 415 428 415 392 414 464 474 496 499 497 498 478 461 479 502 508 530 585 597 652 615 619 574 604 630 729 749 -9999 -9999 -9999 -9999 -9999 -9999 -9999 -9999 -9999 -9999 -9999 -9999 -9999 -9999 -9999 -9999 -9999 -9999 -9999 -9999 -9999 -9999 -9999 -9999
-9999 -9999 -9999 -9999 -9999 -9999 -9999 -9999 -9999 -9999 -9999 -9999 -9999 -9999 -9999 -9999 -9999 -9999 -9999 -9999 -9999 -9999 -9999 -9999 -9999 -9999 -9999 -9999 -9999 -9999 -9999 -9999 -9999 -9999 -9999 -9999 -9999 -9999 -9999 -9999 -9999 -9999 -9999 -9999 -9999 -9999 -9999 -9999 -9999 -9999 -9999 -9999 -9999 -9999 -9999 -9999 -9999 -9999 -9999 -9999 -9999 -9999 -9999 -9999 -9999 -9999 -9999 -9999 -9999 -9999 -9999 -9999 -9999 -9999 -9999 -9999 -9999 -9999 -9999 -9999 -9999 -9999 -9999 -9999 -9999 -9999 -9999 -9999 -9999 -9999 -9999 -9999 -9999 -9999 -9999 -9999 -9999 -9999 -9999 -9999 328 343 326 323 321 321 323 320 336 326 321 305 305 297 296 297 284 282 282 281 296 292 292 274 303 305 309 320 313 284 272 293 324 326 391 357 305 292 340 364 394 372 314 286 286 290 296 311 291 273 274 275 275 293 313 332 343 350 357 366 372 367 364 327 335 338 338 343 348 364 350 350 348 349 340 351 355 360 345 341 325 335 341 314 301 305 320 313 299 299 299 294 299 304 277 279 292 299 306 305 307 337 330 352 356 338 378 336 330 347 343 354 361 377 425 461 459 449 461 435 378 380 341 329 329 318 314 312 308 308 325 305 305 342 357 372 379 391 406 438 457 470 476 479 486 501 540 526 492 480 466 475 483 501 535 574 634 682 685 607 609 678 752 779 -9999 -9999 -9999 -9999 -9999 -9999 -9999 -9999 -9999 -9999 -9999 -9999 -9999 -9999 -9999 -9999 -9999 -9999 -9999 -9999 -9999 -9999 -9999 -9999
-9999 -9999 -9999 -9999 -9999 -9999 -9999 -9999 -9999 -9999 -9999 -9999 -9999 -9999 -9999 -9999 -9999 -9999 -9999 -9999 -9999 -9999 -9999 -9999 -9999 -9999 -9999 -9999 -9999 -9999 -9999 -9999 -9999 -9999 -9999 -9999 -9999 -9999 -9999 -9999 -9999 -9999 -9999 -9999 -9999 -9999 -9999 -9999 -9999 -9999 -9999 -9999 -9999 -9999 -9999 -9999 -9999 -9999 -9999 -9999 -9999 -9999 -9999 -9999 -9999 -9999 -9999 -9999 -9999 -9999 -9999 -9999 -9999 -9999 -9999 -9999 -9999 -9999 -9999 -9999 -9999 -9999 -9999 -9999 -9999 -9999 -9999 -9999 -9999 -9999 -9999 -9999 -9999 -9999 -9999 -9999 -9999 -9999 -9999 -9999 -9999 343 345 332 332 334 320 320 320 307 305 302 302 303 299 297 287 285 283 274 276 274 274 274 277 298 298 346 348 335 300 278 351 337 365 362 312 299 345 398 377 354 303 295 286 307 296 323 302 289 276 276 275 297 318 340 337 339 338 360 352 358 369 351 340 341 338 347 353 358 350 361 357 349 364 358 357 357 345 334 339 324 316 307 316 309 327 313 317 310 320 296 318 311 280 279 292 290 294 296 297 299 306 341 346 353 335 330 330 333 351 371 401 400 386 386 386 399 469 465 384 388 387 363 344 327 313 322 312 320 336 305 305 339 335 339 344 354 365 388 402 422 418 499 519 513 530 494 514 515 517 523 508 542 579 584 628 703 723 675 637 665 773 794 -9999 -9999 -9999 -9999 -9999 -9999 -9999 -9999 -9999 -9999 -9999 -9999 -9999 -9999 -9999 -9999 -9999 -9999 -9999 -9999 -9999 -9999 -9999 -9999
-9999 -9999 -9999 -9999 -9999 -9999 -9999 -9999 -9999 -9999 -9999 -9999 -9999 -9999 -9999 -9999 -9999 -9999 -9999 -9999 -9999 -9999 -9999 -9999 -9999 -9999 -9999 -9999 -9999 -9999 -9999 -9999 -9999 -9999 -9999 -9999 -9999 -9999 -9999 -9999 -9999 -9999 -9999 -9999 -9999 -9999 -9999 -9999 -9999 -9999 -9999 -9999 -9999 -9999 -9999 -9999 -9999 -9999 -9999 -9999 -9999 -9999 -9999 -9999 -9999 -9999 -9999 -9999 -9999 -9999 -9999 -9999 -9999 -9999 -9999 -9999 -9999 -9999 -9999 -9999 -9999 -9999 -9999 -9999 -9999 -9999 -9999 -9999 -9999 -9999 -9999 -9999 -9999 -9999 -9999 -9999 -9999 -9999 -9999 -9999 -9999 333 334 333 334 339 335 329 325 332 318 316 314 313 308 303 293 286 288 280 274 274 274 274 274 300 335 371 371 311 286 278 327 348 380 347 332 299 336 399 383 355 304 291 292 311 300 355 304 291 290 295 295 277 279 333 315 339 327 342 356 367 377 363 353 358 340 350 364 361 357 353 365 370 341 344 345 341 340 341 347 338 331 346 328 327 336 337 326 316 309 322 312 312 279 281 285 296 306 313 316 320 309 317 326 318 318 333 346 360 374 377 409 437 438 404 434 413 485 434 385 413 372 352 349 350 331 340 339 337 347 311 305 308 338 350 333 367 349 348 348 351 424 465 473 485 497 542 536 522 532 514 553 560 618 628 644 755 765 731 747 775 769 782 -9999 -9999 -9999 -9999 -9999 -9999 -9999 -9999 -9999 -9999 -9999 -9999 -9999 -9999 -9999 -9999 -9999 -9999 -9999 -9999 -9999 -9999 -9999 -9999
-9999 -9999 -9999 -9999 -9999 -9999 -9999 -9999 -9999 -9999 -9999 -9999 -9999 -9999 -9999 -9999 -9999 -9999 -9999 -9999 -9999 -9999 -9999 -9999 -9999 -9999 -9999 -9999 -9999 -9999 -9999 -9999 -9999 -9999 -9999 -9999 -9999 -9999 -9999 -9999 -9999 -9999 -9999 -9999 -9999 -9999 -9999 -9999 -9999 -9999 -9999 -9999 -9999 -9999 -9999 -9999 -9999 -9999 -9999 -9999 -9999 -9999 -9999 -9999 -9999 -9999 -9999 -9999 -9999 -9999 -9999 -9999 -9999 -9999 -9999 -9999 -9999 -9999 -9999 -9999 -9999 -9999 -9999 -9999 -9999 -9999 -9999 -9999 -9999 -9999 -9999 -9999 -9999 -9999 -9999 -9999 -9999 -9999 -9999 -9999 -9999 340 341 341 323 324 331 339 332 325 338 329 320 322 319 312 297 294 293 287 274 274 274 274 275 306 359 387 383 353 311 278 356 357 376 322 322 299 326 390 390 341 294 291 305 327 309 372 346 326 292 296 297 288 281 283 324 319 329 340 348 362 357 363 371 370 346 355 363 348 337 347 347 356 349 341 328 343 334 349 363 345 351 344 328 324 315 327 328 318 311 298 316 313 293 284 284 290 298 304 313 304 313 314 317 331 343 374 359 375 392 399 427 458 450 459 445 433 481 464 412 390 393 359 357 357 355 364 358 370 361 333 309 305 305 307 315 325 325 327 327 367 356 377 420 444 469 495 516 547 540 549 567 567 619 672 649 685 744 817 797 784 763 698 695 644 -9999 -9999 -9999 -9999 -9999 -9999 -9999 -9999 -9999 -9999 -9999 -9999 -9999 -9999 -9999 -9999 -9999 -9999 -9999 -9999 -9999 -9999
-9999 -9999 -9999 -9999 -9999 -9999 -9999 -9999 -9999 -9999 -9999 -9999 -9999 -9999 -9999 -9999 -9999 -9999 -9999 -9999 -9999 -9999 -9999 -9999 -9999 -9999 -9999 -9999 -9999 -9999 -9999 -9999 -9999 -9999 -9999 -9999 -9999 -9999 -9999 -9999 -9999 -9999 -9999 -9999 -9999 -9999 -9999 -9999 -9999 -9999 -9999 -9999 -9999 -9999 -9999 -9999 -9999 -9999 -9999 -9999 -9999 -9999 -9999 -9999 -9999 -9999 -9999 -9999 -9999 -9999 -9999 -9999 -9999 -9999 -9999 -9999 -9999 -9999 -9999 -9999 -9999 -9999 -9999 -9999 -9999 -9999 -9999 -9999 -9999 -9999 -9999 -9999 -9999 -9999 -9999 -9999 -9999 -9999 -9999 -9999 -9999 341 345 327 325 318 331 340 347 302 319 335 311 336 343 344 317 304 301 292 294 285 310 301 295 324 348 384 377 330 292 279 334 354 392 377 388 308 311 359 345 315 312 291 304 344 318 378 333 325 303 307 302 307 302 281 284 319 330 338 338 338 338 350 365 371 372 365 366 350 335 324 345 351 348 348 325 329 329 351 368 350 345 339 318 313 313 310 311 319 304 300 298 298 286 284 289 288 295 296 298 310 336 330 333 333 346 364 357 370 408 440 438 469 478 469 461 449 453 401 379 371 365 355 355 355 355 378 388 366 355 330 327 305 320 321 324 322 323 334 348 383 392 356 356 363 422 496 562 587 598 575 584 596 634 691 714 736 774 795 756 720 747 757 671 570 -9999 -9999 -9999 -9999 -9999 -9999 -9999 -9999 -9999 -9999 -9999 -9999 -9999 -9999 -9999 -9999 -9999 -9999 -9999 -9999 -9999 -9999
-9999 -9999 -9999 -9999 -9999 -9999 -9999 -9999 -9999 -9999 -9999 -9999 -9999 -9999 -9999 -9999 -9999 -9999 -9999 -9999 -9999 -9999 -9999 -9999 -9999 -9999 -9999 -9999 -9999 -9999 -9999 -9999 -9999 -9999 -9999 -9999 -9999 -9999 -9999 -9999 -9999 -9999 -9999 -9999 -9999 -9999 -9999 -9999 -9999 -9999 -9999 -9999 -9999 -9999 -9999 -9999 -9999 -9999 -9999 -9999 -9999 -9999 -9999 -9999 -9999 -9999 -9999 -9999 -9999 -9999 -9999 -9999 -9999 -9999 -9999 -9999 -9999 -9999 -9999 -9999 -9999 -9999 -9999 -9999 -9999 -9999 -9999 -9999 -9999 -9999 -9999 -9999 -9999 -9999 -9999 -9999 -9999 -9999 -9999 -9999 -9999 336 331 333 335 338 316 326 310 303 298 297 297 311 339 330 314 314 313 303 285 285 308 310 309 306 329 384 377 335 308 337 338 354 382 383 353 371 342 323 390 347 301 298 335 355 332 370 375 358 318 312 317 329 314 288 281 281 308 344 351 352 358 363 372 375 381 381 360 357 341 324 332 343 336 334 325 325 334 364 362 349 340 343 325 322 324 309 309 304 318 299 305 298 284 284 287 306 291 294 304 301 311 312 314 328 343 350 385 368 432 423 431 445 474 506 484 484 430 393 376 372 362 368 355 355 366 372 390 371 364 345 335 305 333 346 354 379 369 375 368 384 373 398 363 394 404 404 446 559 563 562 566 567 620 718 728 753 784 761 703 642 661 629 572 571 549 549 561 -9999 -9999 -9999 -9999 -9999 -9999 -9999 -9999 -9999 -9999 -9999 -9999 -9999 -9999 -9999 -9999 -9999 -9999 -9999
-9999 -9999 -9999 -9999 -9999 -9999 -9999 -9999 -9999 -9999 -9999 -9999 -9999 -9999 -9999 -9999 -9999 -9999 -9999 -9999 -9999 -9999 -9999 -9999 -9999 -9999 -9999 -9999 -9999 -9999 -9999 -9999 -9999 -9999 -9999 -9999 -9999 -9999 -9999 -9999 -9999 -9999 -9999 -9999 -9999 -9999 -9999 -9999 -9999 -9999 -9999 -9999 -9999 -9999 -9999 -9999 -9999 -9999 -9999 -9999 -9999 -9999 -9999 -9999 -9999 -9999 -9999 -9999 -9999 -9999 -9999 -9999 -9999 -9999 -9999 -9999 -9999 -9999 -9999 -9999 -9999 -9999 -9999 -9999 -9999 -9999 -9999 -9999 -9999 -9999 -9999 -9999 -9999 -9999 -9999 -9999 -9999 -9999 -9999 -9999 -9999 342 340 338 351 344 336 310 310 320 316 308 297 297 297 297 285 285 287 307 285 285 285 285 316 313 325 364 368 358 326 356 337 340 358 375 387 381 386 335 392 342 310 301 352 364 338 392 366 333 323 316 312 347 337 324 293 296 285 326 341 349 344 357 375 381 383 368 349 332 325 334 323 341 342 335 333 325 332 357 359 348 332 330 338 313 313 317 318 308 304 305 313 301 295 284 293 306 307 327 304 302 303 313 317 321 341 353 368 379 411 406 425 451 445 445 492 494 434 383 386 381 375 366 362 355 358 374 375 365 373 356 328 306 313 325 359 355 396 393 426 427 420 433 404 437 410 420 405 434 502 502 513 548 571 639 639 719 682 681 633 589 554 547 520 545 564 585 553 565 562 -9999 -9999 -9999 -9999 -9999 -9999 -9999 -9999 -9999 -9999 -9999 -9999 -9999 -9999 -9999 -9999 -9999
-9999 -9999 -9999 -9999 -9999 -9999 -9999 -9999 -9999 -9999 -9999 -9999 -9999 -9999 -9999 -9999 -9999 -9999 -9999 -9999 -9999 -9999 -9999 -9999 -9999 -9999 -9999 -9999 -9999 -9999 -9999 -9999 -9999 -9999 -9999 -9999 -9999 -9999 -9999 -9999 -9999 -9999 -9999 -9999 -9999 -9999 -9999 -9999 -9999 -9999 -9999 -9999 -9999 -9999 -9999 -9999 -9999 -9999 -9999 -9999 -9999 -9999 -9999 -9999 -9999 -9999 -9999 -9999 -9999 -9999 -9999 -9999 -9999 -9999 -9999 -9999 -9999 -9999 -9999 -9999 -9999 -9999 -9999 -9999 -9999 -9999 -9999 -9999 -9999 -9999 -9999 -9999 -9999 -9999 -9999 -9999 -9999 -9999 -9999 -9999 -9999 358 354 354 353 364 319 322 325 365 342 337 310 297 297 320 307 293 285 285 285 285 285 285 301 309 316 327 371 381 368 378 337 337 337 392 391 394 393 369 392 313 314 301 324 397 360 421 374 336 337 339 347 376 349 334 300 302 288 290 308 328 346 345 388 389 366 357 364 360 346 323 323 327 338 327 325 337 350 334 351 344 341 337 340 333 337 315 311 313 298 302 304 295 292 288 300 304 318 339 337 302 306 312 322 323 328 335 356 379 384 384 384 461 450 466 477 465 457 403 433 438 377 368 355 355 371 368 383 360 352 347 318 318 308 331 360 345 372 386 413 443 441 438 426 443 425 445 422 433 545 585 541 597 611 669 709 702 710 663 582 596 518 490 510 531 584 575 639 676 606 -9999 -9999 -9999 -9999 -9999 -9999 -9999 -9999 -9999 -9999 -9999 -9999 -9999 -9999 -9999 -9999 -9999
-9999 -9999 -9999 -9999 -9999 -9999 -9999 -9999 -9999 -9999 -9999 -9999 -9999 -9999 -9999 -9999 -9999 -9999 -9999 -9999 -9999 -9999 -9999 -9999 -9999 -9999 -9999 -9999 -9999 -9999 -9999 -9999 -9999 -9999 -9999 -9999 -9999 -9999 -9999 -9999 -9999 -9999 -9999 -9999 -9999 -9999 -9999 -9999 -9999 -9999 -9999 -9999 -9999 -9999 -9999 -9999 -9999 -9999 -9999 -9999 -9999 -9999 -9999 -9999 -9999 -9999 -9999 -9999 -9999 -9999 -9999 -9999 -9999 -9999 -9999 -9999 -9999 -9999 -9999 -9999 -9999 -9999 -9999 -9999 -9999 -9999 -9999 -9999 -9999 -9999 -9999 -9999 -9999 -9999 -9999 -9999 -9999 -9999 -9999 -9999 -9999 -9999 369 375 369 330 333 340 367 388 342 315 297 297 330 318 310 308 297 301 297 285 285 286 298 321 311 315 351 365 388 337 337 345 372 341 367 386 389 379 388 347 319 301 323 360 414 398 342 336 342 337 337 338 368 316 331 288 288 288 288 333 354 357 362 377 354 354 356 350 338 323 329 323 331 327 325 340 342 328 345 342 336 328 341 322 322 320 305 305 298 291 299 288 288 294 299 299 307 328 335 302 304 316 321 323 328 335 373 423 437 464 454 451 452 450 450 473 502 483 513 410 384 382 360 355 378 381 378 363 354 337 338 350 311 314 328 335 366 399 528 572 576 459 468 469 466 460 449 460 461 473 557 570 604 696 668 663 650 670 642 571 522 461 491 533 558 546 645 644 591 666 577 592 -9999 -9999 -9999 -9999 -9999 -9999 -9999 -9999 -9999 -9999 -9999 -9999 -9999 -9999
-9999 -9999 -9999 -9999 -9999 -9999 -9999 -9999 -9999 -9999 -9999 -9999 -9999 -9999 -9999 -9999 -9999 -9999 -9999 -9999 -9999 -9999 -9999 -9999 -9999 -9999 -9999 -9999 -9999 -9999 -9999 -9999 -9999 -9999 -9999 -9999 -9999 -9999 -9999 -9999 -9999 -9999 -9999 -9999 -9999 -9999 -9999 -9999 -9999 -9999 -9999 -9999 -9999 -9999 -9999 -9999 -9999 -9999 -9999 -9999 -9999 -9999 -9999 -9999 -9999 -9999 -9999 -9999 -9999 -9999 -9999 -9999 -9999 -9999 -9999 -9999 -9999 -9999 -9999 -9999 -9999 -9999 -9999 -9999 -9999 -9999 -9999 -9999 -9999 -9999 -9999 -9999 -9999 -9999 -9999 -9999 -9999 -9999 -9999 -9999 -9999 -9999 391 379 351 355 359 379 383 354 329 301 297 338 338 340 314 303 296 289 299 289 285 297 322 331 321 316 319 334 387 367 358 388 397 386 399 406 405 399 346 319 325 306 326 367 372 386 354 352 339 346 353 377 375 355 318 313 293 288 288 288 345 366 351 360 353 345 345 341 345 337 331 329 316 332 324 330 324 322 331 343 338 328 332 340 340 330 322 310 298 289 289 299 305 293 301 299 334 320 335 312 306 313 328 327 334 341 415 463 453 475 470 463 450 460 450 501 526 460 429 410 393 400 356 360 366 403 396 363 378 383 339 326 320 311 314 317 340 443 472 458 469 619 584 530 489 505 508 491 527 523 529 569 572 610 589 591 547 543 522 511 480 461 522 502 499 494 514 521 526 573 545 606 597 -9999 -9999 -9999 -9999 -9999 -9999 -9999 -9999 -9999 -9999 -9999 -9999 -9999
-9999 -9999 -9999 -9999 -9999 -9999 -9999 -9999 -9999 -9999 -9999 -9999 -9999 -9999 -9999 -9999 -9999 -9999 -9999 -9999 -9999 -9999 -9999 -9999 -9999 -9999 -9999 -9999 -9999 -9999 -9999 -9999 -9999 -9999 -9999 -9999 -9999 -9999 -9999 -9999 -9999 -9999 -9999 -9999 -9999 -9999 -9999 -9999 -9999 -9999 -9999 -9999 -9999 -9999 -9999 -9999 -9999 -9999 -9999 -9999 -9999 -9999 -9999 -9999 -9999 -9999 -9999 -9999 -9999 -9999 -9999 -9999 -9999 -9999 -9999 -9999 -9999 -9999 -9999 -9999 -9999 -9999 -9999 -9999 -9999 -9999 -9999 -9999 -9999 -9999 -9999 -9999 -9999 -9999 -9999 -9999 -9999 -9999 -9999 -9999 -9999 -9999 388 387 365 372 363 373 333 307 297 297 318 382 373 348 327 297 296 287 285 285 285 334 337 329 316 310 303 316 370 395 391 365 398 383 376 374 359 413 375 362 339 321 308 312 331 352 351 351 340 339 360 371 357 352 313 333 330 288 288 288 288 330 354 328 327 330 336 336 338 334 326 328 316 318 324 328 322 332 322 322 328 352 354 337 314 314 314 315 291 301 304 310 309 300 305 306 338 340 339 324 307 315 330 332 343 346 377 434 463 438 490 470 450 475 488 505 468 502 501 399 377 372 359 374 371 459 440 366 377 352 333 336 344 322 316 317 335 377 383 376 497 529 480 516 517 535 594 590 679 629 629 635 631 623 556 509 509 493 511 430 468 452 473 492 466 461 479 504 531 565 530 624 568 597 607 -9999 -9999 -9999 -9999 -9999 -9999 -9999 -9999 -9999 -9999 -9999
-9999 -9999 -9999 -9999 -9999 -9999 -9999 -9999 -9999 -9999 -9999 -9999 -9999 -9999 -9999 -9999 -9999 -9999 -9999 -9999 -9999 -9999 -9999 -9999 -9999 -9999 -9999 -9999 -9999 -9999 -9999 -9999 -9999 -9999 -9999 -9999 -9999 -9999 -9999 -9999 -9999 -9999 -9999 -9999 -9999 -9999 -9999 -9999 -9999 -9999 -9999 -9999 -9999 -9999 -9999 -9999 -9999 -9999 -9999 -9999 -9999 -9999 -9999 -9999 -9999 -9999 -9999 -9999 -9999 -9999 -9999 -9999 -9999 -9999 -9999 -9999 -9999 -9999 -9999 -9999 -9999 -9999 -9999 -9999 -9999 -9999 -9999 -9999 -9999 -9999 -9999 -9999 -9999 -9999 -9999 -9999 -9999 -9999 -9999 -9999 -9999 -9999 386 367 382 358 350 323 343 330 297 314 345 367 346 310 305 302 294 291 285 286 325 346 332 327 307 299 320 329 357 371 373 349 370 355 343 371 344 379 394 400 381 375 319 321 319 380 364 354 353 357 344 356 329 320 313 346 337 344 288 288 288 291 348 313 313 313 318 327 323 333 319 322 313 327 322 322 322 322 332 336 334 351 363 334 321 307 298 300 293 301 311 320 313 315 322 305 339 339 345 342 314 320 328 342 340 363 364 399 412 430 464 467 468 486 510 477 480 418 388 382 377 367 368 384 382 522 460 397 368 340 347 350 358 329 320 316 332 332 352 373 464 439 419 427 466 493 534 584 782 802 822 804 812 757 564 552 522 501 488 472 417 424 431 450 436 449 439 513 533 503 512 498 583 580 590 627 699 -9999 -9999 -9999 -9999 -9999 -9999 -9999 -9999 -9999
-9999 -9999 -9999 -9999 -9999 -9999 -9999 -9999 -9999 -9999 -9999 -9999 -9999 -9999 -9999 -9999 -9999 -9999 -9999 -9999 -9999 -9999 -9999 -9999 -9999 -9999 -9999 -9999 -9999 -9999 -9999 -9999 -9999 -9999 -9999 -9999 -9999 -9999 -9999 -9999 -9999 -9999 -9999 -9999 -9999 -9999 -9999 -9999 -9999 -9999 -9999 -9999 -9999 -9999 -9999 -9999 -9999 -9999 -9999 -9999 -9999 -9999 -9999 -9999 -9999 -9999 -9999 -9999 -9999 -9999 -9999 -9999 -9999 -9999 -9999 -9999 -9999 -9999 -9999 -9999 -9999 -9999 -9999 -9999 -9999 -9999 -9999 -9999 -9999 -9999 -9999 -9999 -9999 -9999 -9999 -9999 -9999 -9999 -9999 -9999 -9999 -9999 408 369 340 340 356 335 302 297 301 354 362 362 361 346 342 352 295 289 285 285 285 321 314 305 297 302 312 318 340 353 352 371 349 332 335 326 386 389 372 384 377 388 331 335 331 328 354 361 341 345 341 344 352 313 313 356 347 345 288 288 299 314 306 326 313 313 313 313 313 313 322 313 325 351 341 345 328 329 341 347 339 342 351 323 310 307 299 295 293 311 311 324 317 313 305 305 315 340 353 352 314 318 342 345 343 364 375 417 400 441 461 487 503 515 520 466 422 415 416 386 380 379 387 402 391 439 466 447 356 356 397 447 398 354 338 320 324 336 378 394 392 388 389 437 513 587 651 617 784 728 689 679 838 749 576 515 501 503 477 419 422 406 415 427 427 439 479 451 451 462 490 496 496 531 701 745 718 -9999 -9999 -9999 -9999 -9999 -9999 -9999 -9999 -9999
-9999 -9999 -9999 -9999 -9999 -9999 -9999 -9999 -9999 -9999 -9999 -9999 -9999 -9999 -9999 -9999 -9999 -9999 -9999 -9999 -9999 -9999 -9999 -9999 -9999 -9999 -9999 -9999 -9999 -9999 -9999 -9999 -9999 -9999 -9999 -9999 -9999 -9999 -9999 -9999 -9999 -9999 -9999 -9999 -9999 -9999 -9999 -9999 -9999 -9999 -9999 -9999 -9999 -9999 -9999 -9999 -9999 -9999 -9999 -9999 -9999 -9999 -9999 -9999 -9999 -9999 -9999 -9999 -9999 -9999 -9999 -9999 -9999 -9999 -9999 -9999 -9999 -9999 -9999 -9999 -9999 -9999 -9999 -9999 -9999 -9999 -9999 -9999 -9999 -9999 -9999 -9999 -9999 -9999 -9999 -9999 -9999 -9999 -9999 -9999 -9999 -9999 390 360 360 348 340 316 307 297 344 399 393 376 356 342 353 328 313 290 288 285 285 289 310 290 312 308 319 338 329 352 331 338 319 336 305 334 332 392 377 339 361 389 350 369 369 337 371 355 344 341 342 349 315 323 313 357 344 345 293 288 304 299 301 323 324 313 313 313 313 313 324 313 324 348 350 356 357 350 339 352 350 344 332 320 305 299 296 308 299 309 316 318 319 318 312 305 310 337 337 354 316 316 329 337 342 364 373 420 443 441 451 488 458 464 476 467 462 484 497 410 479 413 429 420 410 544 527 403 387 384 581 476 378 469 368 325 323 332 398 442 383 402 428 448 495 548 754 833 859 688 549 731 701 573 617 523 490 455 442 408 401 416 434 454 518 599 525 571 559 517 557 580 605 582 562 720 -9999 -9999 -9999 -9999 -9999 -9999 -9999 -9999 -9999 -9999
-9999 -9999 -9999 -9999 -9999 -9999 -9999 -9999 -9999 -9999 -9999 -9999 -9999 -9999 -9999 -9999 -9999 -9999 -9999 -9999 -9999 -9999 -9999 -9999 -9999 -9999 -9999 -9999 -9999 -9999 -9999 -9999 -9999 -9999 -9999 -9999 -9999 -9999 -9999 -9999 -9999 -9999 -9999 -9999 -9999 -9999 -9999 -9999 -9999 -9999 -9999 -9999 -9999 -9999 -9999 -9999 -9999 -9999 -9999 -9999 -9999 -9999 -9999 -9999 -9999 -9999 -9999 -9999 -9999 -9999 -9999 -9999 -9999 -9999 -9999 -9999 -9999 -9999 -9999 -9999 -9999 -9999 -9999 -9999 -9999 -9999 -9999 -9999 -9999 -9999 -9999 -9999 -9999 -9999 -9999 -9999 -9999 -9999 -9999 -9999 -9999 417 400 375 350 323 315 315 352 325 356 390 372 356 372 375 368 368 340 296 301 285 285 285 285 320 334 322 321 325 333 347 360 325 316 328 296 314 298 337 313 334 384 396 410 426 380 351 385 376 361 345 329 328 344 338 313 361 354 344 296 290 301 311 306 313 330 331 324 321 313 325 313 331 344 336 357 367 364 344 339 339 339 356 315 307 299 299 311 301 304 311 331 333 335 318 312 312 310 324 346 353 359 329 338 356 367 360 360 438 439 476 480 442 442 486 493 486 495 483 431 444 556 601 481 452 506 543 602 488 549 540 633 568 475 605 460 376 327 325 348 359 386 403 428 436 600 661 776 726 658 574 498 636 552 520 506 501 476 433 416 401 408 420 465 479 515 542 589 651 613 635 625 654 722 659 669 659 666 -9999 -9999 -9999 -9999 -9999 -9999 -9999 -9999 -9999
-9999 -9999 -9999 -9999 -9999 -9999 -9999 -9999 -9999 -9999 -9999 -9999 -9999 -9999 -9999 -9999 -9999 -9999 -9999 -9999 -9999 -9999 -9999 -9999 -9999 -9999 -9999 -9999 -9999 -9999 -9999 -9999 -9999 -9999 -9999 -9999 -9999 -9999 -9999 -9999 -9999 -9999 -9999 -9999 -9999 -9999 -9999 -9999 -9999 -9999 -9999 -9999 -9999 -9999 -9999 -9999 -9999 -9999 -9999 -9999 -9999 -9999 -9999 -9999 -9999 -9999 -9999 -9999 -9999 -9999 -9999 -9999 -9999 -9999 -9999 -9999 -9999 -9999 -9999 -9999 -9999 -9999 -9999 -9999 -9999 -9999 -9999 -9999 -9999 -9999 -9999 -9999 -9999 -9999 -9999 -9999 -9999 -9999 -9999 -9999 -9999 -9999 436 364 323 317 335 339 378 401 408 416 395 364 364 359 362 345 327 335 324 293 285 285 285 299 336 354 337 342 336 337 361 320 291 296 330 298 298 298 333 388 329 339 360 422 397 389 371 349 343 339 345 365 369 327 313 360 358 341 299 290 294 313 317 316 319 323 321 334 330 313 316 353 337 346 364 358 343 339 339 344 350 342 317 307 303 318 309 317 308 326 329 327 312 312 312 319 315 316 342 350 372 370 329 358 372 381 387 365 409 413 409 462 477 480 499 511 509 487 506 500 516 578 534 597 595 574 604 525 599 657 644 634 643 602 577 437 327 334 331 372 361 355 371 383 413 430 538 564 516 462 523 504 502 465 463 484 467 436 438 401 424 449 474 528 509 582 595 604 646 610 721 719 717 749 735 805 807 -9999 -9999 -9999 -9999 -9999 -9999 -9999 -9999 -9999
-9999 -9999 -9999 -9999 -9999 -9999 -9999 -9999 -9999 -9999 -9999 -9999 -9999 -9999 -9999 -9999 -9999 -9999 -9999 -9999 -9999 -9999 -9999 -9999 -9999 -9999 -9999 -9999 -9999 -9999 -9999 -9999 -9999 -9999 -9999 -9999 -9999 -9999 -9999 -9999 -9999 -9999 -9999 -9999 -9999 -9999 -9999 -9999 -9999 -9999 -9999 -9999 -9999 -9999 -9999 -9999 -9999 -9999 -9999 -9999 -9999 -9999 -9999 -9999 -9999 -9999 -9999 -9999 -9999 -9999 -9999 -9999 -9999 -9999 -9999 -9999 -9999 -9999 -9999 -9999 -9999 -9999 -9999 -9999 -9999 -9999 -9999 -9999 -9999 -9999 -9999 -9999 -9999 -9999 -9999 -9999 -9999 -9999 -9999 -9999 -9999 431 394 339 325 335 407 395 331 362 357 334 377 350 325 316 335 350 356 351 337 323 285 290 285 285 288 316 322 356 327 298 318 300 285 343 368 373 328 364 299 314 366 387 408 420 412 421 367 349 354 349 368 354 351 329 352 363 348 323 303 295 299 297 316 321 319 324 327 335 315 334 337 335 345 356 358 351 344 343 340 351 364 349 355 329 320 320 320 325 329 338 335 325 325 332 318 329 320 315 345 355 383 383 360 338 359 408 420 414 431 409 433 487 500 505 516 510 532 537 546 546 558 532 564 582 585 595 601 637 665 640 616 575 634 457 394 368 329 331 331 340 344 374 414 427 407 432 410 451 464 457 454 452 434 466 467 459 449 387 384 398 421 439 439 468 525 526 553 568 557 555 672 709 755 817 -9999 -9999 -9999 -9999 -9999 -9999 -9999 -9999 -9999 -9999 -9999 -9999
-9999 -9999 -9999 -9999 -9999 -9999 -9999 -9999 -9999 -9999 -9999 -9999 -9999 -9999 -9999 -9999 -9999 -9999 -9999 -9999 -9999 -9999 -9999 -9999 -9999 -9999 -9999 -9999 -9999 -9999 -9999 -9999 -9999 -9999 -9999 -9999 -9999 -9999 -9999 -9999 -9999 -9999 -9999 -9999 -9999 -9999 -9999 -9999 -9999 -9999 -9999 -9999 -9999 -9999 -9999 -9999 -9999 -9999 -9999 -9999 -9999 -9999 -9999 -9999 -9999 -9999 -9999 -9999 -9999 -9999 -9999 -9999 -9999 -9999 -9999 -9999 -9999 -9999 -9999 -9999 -9999 -9999 -9999 -9999 -9999 -9999 -9999 -9999 -9999 -9999 -9999 -9999 -9999 -9999 -9999 -9999 -9999 -9999 -9999 -9999 -9999 401 372 345 352 374 370 320 309 307 300 327 361 354 330 325 298 326 351 317 294 285 298 299 285 285 285 285 321 323 300 292 286 285 288 294 305 361 365 356 319 308 346 341 387 394 374 419 367 385 366 360 350 342 342 340 329 359 355 351 307 295 298 297 319 319 329 340 339 345 315 315 317 337 328 339 343 338 355 343 338 358 361 346 344 337 334 335 330 344 354 361 326 321 318 318 320 334 357 323 353 375 368 342 354 373 338 382 437 456 492 474 490 475 481 475 455 495 492 503 511 567 536 528 556 577 554 556 500 597 634 549 508 574 553 447 366 337 359 353 336 337 339 343 343 343 395 391 383 405 422 404 408 452 421 439 424 412 404 381 388 395 403 406 428 436 436 456 460 517 555 555 555 668 681 825 -9999 -9999 -9999 -9999 -9999 -9999 -9999 -9999 -9999 -9999 -9999 -9999
-9999 -9999 -9999 -9999 -9999 -9999 -9999 -9999 -9999 -9999 -9999 -9999 -9999 -9999 -9999 -9999 -9999 -9999 -9999 -9999 -9999 -9999 -9999 -9999 -9999 -9999 -9999 -9999 -9999 -9999 -9999 -9999 -9999 -9999 -9999 -9999 -9999 -9999 -9999 -9999 -9999 -9999 -9999 -9999 -9999 -9999 -9999 -9999 -9999 -9999 -9999 -9999 -9999 -9999 -9999 -9999 -9999 -9999 -9999 -9999 -9999 -9999 -9999 -9999 -9999 -9999 -9999 -9999 -9999 -9999 -9999 -9999 -9999 -9999 -9999 -9999 -9999 -9999 -9999 -9999 -9999 -9999 -9999 -9999 -9999 -9999 -9999 -9999 -9999 -9999 -9999 -9999 -9999 -9999 -9999 -9999 -9999 -9999 -9999 -9999 -9999 -9999 380 399 368 342 330 314 326 328 312 296 336 351 372 329 329 298 300 285 285 288 294 285 285 293 288 285 285 285 303 290 285 292 328 301 342 363 387 361 393 369 310 335 343 353 411 387 362 362 349 363 358 362 368 345 335 356 356 314 306 298 295 300 301 300 322 332 351 354 344 320 315 315 333 318 334 346 331 329 330 343 358 354 341 344 341 346 347 342 363 368 323 323 321 331 340 350 336 324 340 340 340 362 387 409 382 346 378 406 445 431 441 420 444 444 445 484 490 492 515 551 534 528 551 495 495 495 578 635 634 628 579 508 491 446 352 337 382 519 408 345 344 346 347 344 348 383 396 407 388 402 385 419 408 412 403 403 380 388 395 399 447 469 528 585 534 514 525 582 675 658 614 726 792 -9999 -9999 -9999 -9999 -9999 -9999 -9999 -9999 -9999 -9999 -9999 -9999 -9999
-9999 -9999 -9999 -9999 -9999 -9999 -9999 -9999 -9999 -9999 -9999 -9999 -9999 -9999 -9999 -9999 -9999 -9999 -9999 -9999 -9999 -9999 -9999 -9999 -9999 -9999 -9999 -9999 -9999 -9999 -9999 -9999 -9999 -9999 -9999 -9999 -9999 -9999 -9999 -9999 -9999 -9999 -9999 -9999 -9999 -9999 -9999 -9999 -9999 -9999 -9999 -9999 -9999 -9999 -9999 -9999 -9999 -9999 -9999 -9999 -9999 -9999 -9999 -9999 -9999 -9999 -9999 -9999 -9999 -9999 -9999 -9999 -9999 -9999 -9999 -9999 -9999 -9999 -9999 -9999 -9999 -9999 -9999 -9999 -9999 -9999 -9999 -9999 -9999 -9999 -9999 -9999 -9999 -9999 -9999 -9999 -9999 -9999 -9999 -9999 -9999 -9999 420 374 350 355 323 330 357 334 329 307 296 296 316 294 294 294 294 302 331 350 285 285 285 311 306 292 285 285 285 285 303 352 375 353 364 397 394 382 387 353 323 365 386 410 422 426 373 366 346 353 358 365 366 343 335 342 362 315 309 299 301 297 298 298 319 336 351 367 364 340 337 329 315 317 330 331 329 330 350 345 345 348 345 352 359 348 355 338 350 348 339 343 348 346 338 336 325 337 342 340 340 371 401 389 370 390 349 390 414 414 414 415 445 457 475 498 470 467 500 534 503 476 495 495 527 542 583 616 551 479 573 399 410 351 351 393 413 560 476 384 351 348 350 349 350 356 385 383 416 413 375 406 402 384 391 379 377 383 422 446 480 470 489 584 531 608 550 525 632 667 643 823 -9999 -9999 -9999 -9999 -9999 -9999 -9999 -9999 -9999 -9999 -9999 -9999 -9999 -9999
-9999 -9999 -9999 -9999 -9999 -9999 -9999 -9999 -9999 -9999 -9999 -9999 -9999 -9999 -9999 -9999 -9999 -9999 -9999 -9999 -9999 -9999 -9999 -9999 -9999 -9999 -9999 -9999 -9999 -9999 -9999 -9999 -9999 -9999 -9999 -9999 -9999 -9999 -9999 -9999 -9999 -9999 -9999 -9999 -9999 -9999 -9999 -9999 -9999 -9999 -9999 -9999 -9999 -9999 -9999 -9999 -9999 -9999 -9999 -9999 -9999 -9999 -9999 -9999 -9999 -9999 -9999 -9999 -9999 -9999 -9999 -9999 -9999 -9999 -9999 -9999 -9999 -9999 -9999 -9999 -9999 -9999 -9999 -9999 -9999 -9999 -9999 -9999 -9999 -9999 -9999 -9999 -9999 -9999 -9999 -9999 -9999 -9999 -9999 -9999 -9999 -9999 420 390 370 330 337 363 355 327 351 344 297 296 296 301 344 348 381 375 350 323 285 285 285 302 314 313 293 285 285 311 309 316 321 361 407 363 387 381 385 366 360 323 361 411 439 405 360 353 346 346 342 373 369 348 335 336 378 326 311 307 299 300 300 303 316 322 339 339 339 349 353 335 325 322 317 318 319 324 336 326 337 342 327 340 337 339 341 336 347 349 346 353 349 337 331 329 350 364 359 348 340 386 415 403 417 429 349 401 426 468 444 432 442 459 515 498 486 467 472 523 520 446 541 497 582 587 642 601 484 399 399 399 399 351 388 442 534 608 597 422 366 368 354 356 352 350 351 387 374 369 362 366 372 374 374 374 384 394 476 525 525 562 552 621 633 619 685 655 628 782 791 848 -9999 -9999 -9999 -9999 -9999 -9999 -9999 -9999 -9999 -9999 -9999 -9999 -9999 -9999
-9999 -9999 -9999 -9999 -9999 -9999 -9999 -9999 -9999 -9999 -9999 -9999 -9999 -9999 -9999 -9999 -9999 -9999 -9999 -9999 -9999 -9999 -9999 -9999 -9999 -9999 -9999 -9999 -9999 -9999 -9999 -9999 -9999 -9999 -9999 -9999 -9999 -9999 -9999 -9999 -9999 -9999 -9999 -9999 -9999 -9999 -9999 -9999 -9999 -9999 -9999 -9999 -9999 -9999 -9999 -9999 -9999 -9999 -9999 -9999 -9999 -9999 -9999 -9999 -9999 -9999 -9999 -9999 -9999 -9999 -9999 -9999 -9999 -9999 -9999 -9999 -9999 -9999 -9999 -9999 -9999 -9999 -9999 -9999 -9999 -9999 -9999 -9999 -9999 -9999 -9999 -9999 -9999 -9999 -9999 -9999 -9999 -9999 -9999 -9999 -9999 -9999 427 387 357 374 363 344 330 311 300 300 296 304 337 312 380 331 316 316 287 285 285 285 290 292 311 318 310 307 285 303 301 328 319 317 311 320 367 419 400 421 396 336 356 371 413 400 380 362 364 363 352 341 335 335 335 352 370 338 321 314 300 301 302 300 317 335 335 340 339 339 347 346 343 331 326 326 323 319 321 321 331 327 338 336 336 337 336 342 332 343 346 342 340 348 338 333 349 358 362 347 343 380 412 419 410 392 351 373 458 490 483 468 436 490 514 482 478 510 441 430 429 564 563 577 581 549 570 433 409 412 399 433 560 500 457 591 638 605 475 412 384 394 357 356 356 355 351 354 355 358 361 366 370 375 386 390 453 417 416 447 494 590 631 680 711 739 708 763 772 808 852 -9999 -9999 -9999 -9999 -9999 -9999 -9999 -9999 -9999 -9999 -9999 -9999 -9999 -9999 -9999
-9999 -9999 -9999 -9999 -9999 -9999 -9999 -9999 -9999 -9999 -9999 -9999 -9999 -9999 -9999 -9999 -9999 -9999 -9999 -9999 -9999 -9999 -9999 -9999 -9999 -9999 -9999 -9999 -9999 -9999 -9999 -9999 -9999 -9999 -9999 -9999 -9999 -9999 -9999 -9999 -9999 -9999 -9999 -9999 -9999 -9999 -9999 -9999 -9999 -9999 -9999 -9999 -9999 -9999 -9999 -9999 -9999 -9999 -9999 -9999 -9999 -9999 -9999 -9999 -9999 -9999 -9999 -9999 -9999 -9999 -9999 -9999 -9999 -9999 -9999 -9999 -9999 -9999 -9999 -9999 -9999 -9999 -9999 -9999 -9999 -9999 -9999 -9999 -9999 -9999 -9999 -9999 -9999 -9999 -9999 -9999 -9999 -9999 -9999 -9999 447 412 426 369 366 365 345 334 327 306 300 310 306 314 331 325 366 319 337 327 298 286 285 285 288 316 313 318 325 305 294 285 301 318 311 311 333 332 375 399 413 370 390 343 397 432 388 375 361 354 355 352 357 344 359 362 346 349 373 361 334 321 315 304 305 311 322 342 343 356 350 339 349 343 353 345 349 323 325 324 326 332 321 325 327 331 332 332 332 332 340 348 345 348 340 342 336 342 339 348 365 350 358 368 375 415 419 435 377 444 457 433 433 488 450 465 519 512 467 414 417 417 441 464 595 596 643 585 506 477 462 501 399 399 519 445 445 475 639 560 451 422 395 382 363 358 359 357 355 355 359 359 361 373 383 390 401 386 425 476 524 505 587 655 676 726 764 668 618 646 752 853 853 -9999 -9999 -9999 -9999 -9999 -9999 -9999 -9999 -9999 -9999 -9999 -9999 -9999 -9999 -9999
-9999 -9999 -9999 -9999 -9999 -9999 -9999 -9999 -9999 -9999 -9999 -9999 -9999 -9999 -9999 -9999 -9999 -9999 -9999 -9999 -9999 -9999 -9999 -9999 -9999 -9999 -9999 -9999 -9999 -9999 -9999 -9999 -9999 -9999 -9999 -9999 -9999 -9999 -9999 -9999 -9999 -9999 -9999 -9999 -9999 -9999 -9999 -9999 -9999 -9999 -9999 -9999 -9999 -9999 -9999 -9999 -9999 -9999 -9999 -9999 -9999 -9999 -9999 -9999 -9999 -9999 -9999 -9999 -9999 -9999 -9999 -9999 -9999 -9999 -9999 -9999 -9999 -9999 -9999 -9999 -9999 -9999 -9999 -9999 -9999 -9999 -9999 -9999 -9999 -9999 -9999 -9999 -9999 -9999 -9999 -9999 -9999 -9999 -9999 -9999 -9999 431 366 364 371 357 351 352 321 306 303 320 328 345 367 398 363 346 322 317 305 285 285 285 298 310 322 336 321 306 294 292 285 288 326 342 334 324 335 363 361 367 377 370 391 411 401 371 365 363 354 354 357 356 349 347 346 354 349 377 338 322 319 314 309 305 331 357 357 362 360 348 350 352 368 337 334 329 337 326 333 330 329 329 333 329 332 332 332 336 339 338 338 343 343 344 350 348 352 351 376 350 374 385 424 451 457 447 403 390 426 466 502 447 401 423 414 414 414 508 543 520 489 441 464 496 645 614 654 592 552 502 399 399 437 595 549 480 545 725 466 434 424 402 362 359 367 366 370 362 365 363 372 404 425 444 489 391 402 464 562 514 507 679 655 579 681 577 603 645 752 941 -9999 -9999 -9999 -9999 -9999 -9999 -9999 -9999 -9999 -9999 -9999 -9999 -9999 -9999 -9999 -9999
-9999 -9999 -9999 -9999 -9999 -9999 -9999 -9999 -9999 -9999 -9999 -9999 -9999 -9999 -9999 -9999 -9999 -9999 -9999 -9999 -9999 -9999 -9999 -9999 -9999 -9999 -9999 -9999 -9999 -9999 -9999 -9999 -9999 -9999 -9999 -9999 -9999 -9999 -9999 -9999 -9999 -9999 -9999 -9999 -9999 -9999 -9999 -9999 -9999 -9999 -9999 -9999 -9999 -9999 -9999 -9999 -9999 -9999 -9999 -9999 -9999 -9999 -9999 -9999 -9999 -9999 -9999 -9999 -9999 -9999 -9999 -9999 -9999 -9999 -9999 -9999 -9999 -9999 -9999 -9999 -9999 -9999 -9999 -9999 -9999 -9999 -9999 -9999 -9999 -9999 -9999 -9999 -9999 -9999 -9999 -9999 -9999 -9999 -9999 -9999 -9999 425 358 347 347 347 345 339 307 309 324 377 426 435 432 369 388 367 348 323 317 295 295 285 298 304 314 328 325 325 306 298 306 305 312 321 324 328 340 337 335 359 394 388 401 390 379 372 379 379 374 352 346 346 346 346 346 365 375 371 364 350 324 318 319 307 305 343 362 367 362 352 348 357 346 340 349 345 360 336 353 332 329 329 333 341 336 338 332 335 335 335 339 340 343 353 357 355 365 378 383 368 387 419 458 434 414 403 448 390 418 494 390 400 441 414 414 454 546 414 468 595 570 456 441 520 518 677 658 663 547 475 400 399 407 427 428 485 589 622 454 415 405 374 360 366 381 394 378 374 382 377 370 465 464 503 452 424 399 420 473 456 446 454 461 546 583 546 746 775 838 -9999 -9999 -9999 -9999 -9999 -9999 -9999 -9999 -9999 -9999 -9999 -9999 -9999 -9999 -9999 -9999 -9999
-9999 -9999 -9999 -9999 -9999 -9999 -9999 -9999 -9999 -9999 -9999 -9999 -9999 -9999 -9999 -9999 -9999 -9999 -9999 -9999 -9999 -9999 -9999 -9999 -9999 -9999 -9999 -9999 -9999 -9999 -9999 -9999 -9999 -9999 -9999 -9999 -9999 -9999 -9999 -9999 -9999 -9999 -9999 -9999 -9999 -9999 -9999 -9999 -9999 -9999 -9999 -9999 -9999 -9999 -9999 -9999 -9999 -9999 -9999 -9999 -9999 -9999 -9999 -9999 -9999 -9999 -9999 -9999 -9999 -9999 -9999 -9999 -9999 -9999 -9999 -9999 -9999 -9999 -9999 -9999 -9999 -9999 -9999 -9999 -9999 -9999 -9999 -9999 -9999 -9999 -9999 -9999 -9999 -9999 -9999 -9999 -9999 -9999 -9999 -9999 426 369 362 355 349 350 333 326 318 327 377 405 396 395 354 343 321 320 338 321 317 318 320 292 303 305 336 339 341 307 305 317 311 305 320 310 312 333 338 335 340 347 375 369 368 369 378 365 375 376 356 348 355 348 346 350 346 346 373 366 368 354 335 326 322 319 305 347 361 360 357 348 362 363 363 352 365 348 352 364 340 335 352 336 329 349 347 339 334 340 342 345 345 348 352 358 360 356 374 365 388 373 398 395 419 456 455 410 445 390 390 390 396 438 499 544 520 540 550 462 418 496 546 571 508 444 485 611 527 636 438 408 399 399 399 399 399 450 518 499 435 418 395 375 362 381 388 389 407 406 413 399 373 399 425 453 453 433 403 408 426 432 454 529 517 559 546 556 664 750 832 -9999 -9999 -9999 -9999 -9999 -9999 -9999 -9999 -9999 -9999 -9999 -9999 -9999 -9999 -9999 -9999 -9999
-9999 -9999 -9999 -9999 -9999 -9999 -9999 -9999 -9999 -9999 -9999 -9999 -9999 -9999 -9999 -9999 -9999 -9999 -9999 -9999 -9999 -9999 -9999 -9999 -9999 -9999 -9999 -9999 -9999 -9999 -9999 -9999 -9999 -9999 -9999 -9999 -9999 -9999 -9999 -9999 -9999 -9999 -9999 -9999 -9999 -9999 -9999 -9999 -9999 -9999 -9999 -9999 -9999 -9999 -9999 -9999 -9999 -9999 -9999 -9999 -9999 -9999 -9999 -9999 -9999 -9999 -9999 -9999 -9999 -9999 -9999 -9999 -9999 -9999 -9999 -9999 -9999 -9999 -9999 -9999 -9999 -9999 -9999 -9999 -9999 -9999 -9999 -9999 -9999 -9999 -9999 -9999 -9999 -9999 -9999 -9999 -9999 -9999 -9999 410 411 396 388 360 363 356 342 340 327 377 421 384 373 361 384 358 330 321 318 320 311 310 302 310 292 298 317 343 338 326 323 319 309 305 305 305 307 324 335 338 354 349 353 359 370 367 382 373 356 361 350 346 346 346 358 359 346 346 365 367 363 365 360 321 322 324 307 307 367 379 371 362 374 397 370 360 356 355 360 358 337 341 339 332 329 332 337 336 340 346 340 352 356 356 352 353 364 368 378 373 372 399 394 414 465 445 488 492 501 397 390 390 497 542 561 498 528 599 579 435 518 464 544 514 577 464 464 475 545 594 508 452 399 399 412 399 417 452 445 435 412 403 388 381 378 451 432 448 452 449 427 411 398 409 442 485 554 498 412 423 439 475 530 579 652 670 753 748 648 763 -9999 -9999 -9999 -9999 -9999 -9999 -9999 -9999 -9999 -9999 -9999 -9999 -9999 -9999 -9999 -9999 -9999 -9999
-9999 -9999 -9999 -9999 -9999 -9999 -9999 -9999 -9999 -9999 -9999 -9999 -9999 -9999 -9999 -9999 -9999 -9999 -9999 -9999 -9999 -9999 -9999 -9999 -9999 -9999 -9999 -9999 -9999 -9999 -9999 -9999 -9999 -9999 -9999 -9999 -9999 -9999 -9999 -9999 -9999 -9999 -9999 -9999 -9999 -9999 -9999 -9999 -9999 -9999 -9999 -9999 -9999 -9999 -9999 -9999 -9999 -9999 -9999 -9999 -9999 -9999 -9999 -9999 -9999 -9999 -9999 -9999 -9999 -9999 -9999 -9999 -9999 -9999 -9999 -9999 -9999 -9999 -9999 -9999 -9999 -9999 -9999 -9999 -9999 -9999 -9999 -9999 -9999 -9999 -9999 -9999 -9999 -9999 -9999 -9999 -9999 -9999 -9999 -9999 392 388 386 375 356 356 342 344 345 381 377 366 376 359 371 369 342 318 318 318 316 298 298 298 326 314 337 353 351 332 344 317 308 312 305 305 305 305 306 311 321 321 332 335 336 383 386 382 368 346 346 346 346 364 362 351 355 346 350 375 370 369 334 325 320 307 307 307 347 358 367 363 373 375 370 357 355 359 350 343 337 339 334 329 336 336 342 339 348 350 348 354 367 363 359 368 382 368 378 386 384 397 453 456 414 459 496 481 434 390 390 390 390 411 498 576 515 575 458 505 595 472 464 472 564 557 542 467 503 595 453 403 399 399 457 437 457 479 440 445 450 399 388 385 386 415 449 486 518 495 449 426 426 436 449 488 508 467 434 435 464 538 579 589 731 765 840 817 669 -9999 -9999 -9999 -9999 -9999 -9999 -9999 -9999 -9999 -9999 -9999 -9999 -9999 -9999 -9999 -9999 -9999 -9999 -9999
-9999 -9999 -9999 -9999 -9999 -9999 -9999 -9999 -9999 -9999 -9999 -9999 -9999 -9999 -9999 -9999 -9999 -9999 -9999 -9999 -9999 -9999 -9999 -9999 -9999 -9999 -9999 -9999 -9999 -9999 -9999 -9999 -9999 -9999 -9999 -9999 -9999 -9999 -9999 -9999 -9999 -9999 -9999 -9999 -9999 -9999 -9999 -9999 -9999 -9999 -9999 -9999 -9999 -9999 -9999 -9999 -9999 -9999 -9999 -9999 -9999 -9999 -9999 -9999 -9999 -9999 -9999 -9999 -9999 -9999 -9999 -9999 -9999 -9999 -9999 -9999 -9999 -9999 -9999 -9999 -9999 -9999 -9999 -9999 -9999 -9999 -9999 -9999 -9999 -9999 -9999 -9999 -9999 -9999 -9999 -9999 -9999 -9999 -9999 -9999 376 393 396 393 368 371 346 344 344 353 361 359 371 359 343 343 343 339 324 338 337 316 298 321 334 349 336 331 347 345 341 332 328 319 322 327 305 305 305 316 308 313 334 329 343 352 355 355 357 353 346 346 346 363 362 360 359 346 380 372 369 351 346 330 326 308 307 308 312 315 340 336 357 341 344 344 345 350 346 362 352 344 355 347 341 342 344 351 355 351 359 349 366 374 372 369 389 390 395 400 398 416 464 492 462 467 496 478 489 402 390 401 390 390 398 423 430 588 484 550 558 488 502 478 504 606 545 537 471 489 483 419 408 400 399 493 492 498 480 479 427 415 394 389 402 425 464 458 456 484 466 473 495 506 535 520 516 458 434 438 439 462 486 515 564 608 727 800 -9999 -9999 -9999 -9999 -9999 -9999 -9999 -9999 -9999 -9999 -9999 -9999 -9999 -9999 -9999 -9999 -9999 -9999 -9999 -9999
-9999 -9999 -9999 -9999 -9999 -9999 -9999 -9999 -9999 -9999 -9999 -9999 -9999 -9999 -9999 -9999 -9999 -9999 -9999 -9999 -9999 -9999 -9999 -9999 -9999 -9999 -9999 -9999 -9999 -9999 -9999 -9999 -9999 -9999 -9999 -9999 -9999 -9999 -9999 -9999 -9999 -9999 -9999 -9999 -9999 -9999 -9999 -9999 -9999 -9999 -9999 -9999 -9999 -9999 -9999 -9999 -9999 -9999 -9999 -9999 -9999 -9999 -9999 -9999 -9999 -9999 -9999 -9999 -9999 -9999 -9999 -9999 -9999 -9999 -9999 -9999 -9999 -9999 -9999 -9999 -9999 -9999 -9999 -9999 -9999 -9999 -9999 -9999 -9999 -9999 -9999 -9999 -9999 -9999 -9999 -9999 -9999 -9999 -9999 -9999 -9999 384 392 379 362 356 372 362 366 360 339 339 348 344 362 356 349 324 298 298 298 298 298 298 308 323 305 357 377 372 362 384 363 354 337 339 340 305 305 305 319 334 322 345 362 366 368 373 372 362 348 358 360 376 366 346 346 346 358 368 358 351 336 330 331 313 307 309 316 320 315 318 328 346 352 347 368 357 364 360 362 370 357 356 370 387 375 363 364 360 359 356 381 391 379 387 402 389 403 430 439 436 456 456 494 451 451 537 450 404 390 410 429 422 396 419 452 615 602 594 585 502 541 554 535 628 565 494 515 486 490 438 428 408 421 430 520 502 472 452 424 403 395 393 418 423 411 411 426 470 501 516 539 529 584 576 524 474 435 488 498 465 572 569 694 696 713 -9999 -9999 -9999 -9999 -9999 -9999 -9999 -9999 -9999 -9999 -9999 -9999 -9999 -9999 -9999 -9999 -9999 -9999 -9999 -9999 -9999
-9999 -9999 -9999 -9999 -9999 -9999 -9999 -9999 -9999 -9999 -9999 -9999 -9999 -9999 -9999 -9999 -9999 -9999 -9999 -9999 -9999 -9999 -9999 -9999 -9999 -9999 -9999 -9999 -9999 -9999 -9999 -9999 -9999 -9999 -9999 -9999 -9999 -9999 -9999 -9999 -9999 -9999 -9999 -9999 -9999 -9999 -9999 -9999 -9999 -9999 -9999 -9999 -9999 -9999 -9999 -9999 -9999 -9999 -9999 -9999 -9999 -9999 -9999 -9999 -9999 -9999 -9999 -9999 -9999 -9999 -9999 -9999 -9999 -9999 -9999 -9999 -9999 -9999 -9999 -9999 -9999 -9999 -9999 -9999 -9999 -9999 -9999 -9999 -9999 -9999 -9999 -9999 -9999 -9999 -9999 -9999 -9999 -9999 -9999 -9999 -9999 391 396 383 385 379 384 382 376 371 352 331 325 329 344 316 316 316 359 334 309 298 298 298 298 298 306 336 348 371 352 369 393 382 361 343 337 336 305 307 309 326 315 349 360 368 380 380 379 371 369 370 371 377 375 379 346 346 375 382 367 356 341 330 333 332 310 310 337 334 336 316 317 366 355 347 365 377 379 367 368 361 365 372 379 380 382 387 361 372 371 361 379 392 391 415 414 412 417 451 460 467 531 476 558 451 533 451 436 419 393 390 411 406 396 414 426 513 624 606 600 567 622 600 603 596 611 556 584 558 584 537 443 446 431 429 469 496 514 461 430 400 401 398 400 400 417 449 472 529 536 582 555 612 635 671 553 461 449 530 601 544 590 672 654 770 778 -9999 -9999 -9999 -9999 -9999 -9999 -9999 -9999 -9999 -9999 -9999 -9999 -9999 -9999 -9999 -9999 -9999 -9999 -9999 -9999 -9999
-9999 -9999 -9999 -9999 -9999 -9999 -9999 -9999 -9999 -9999 -9999 -9999 -9999 -9999 -9999 -9999 -9999 -9999 -9999 -9999 -9999 -9999 -9999 -9999 -9999 -9999 -9999 -9999 -9999 -9999 -9999 -9999 -9999 -9999 -9999 -9999 -9999 -9999 -9999 -9999 -9999 -9999 -9999 -9999 -9999 -9999 -9999 -9999 -9999 -9999 -9999 -9999 -9999 -9999 -9999 -9999 -9999 -9999 -9999 -9999 -9999 -9999 -9999 -9999 -9999 -9999 -9999 -9999 -9999 -9999 -9999 -9999 -9999 -9999 -9999 -9999 -9999 -9999 -9999 -9999 -9999 -9999 -9999 -9999 -9999 -9999 -9999 -9999 -9999 -9999 -9999 -9999 -9999 -9999 -9999 -9999 -9999 -9999 -9999 -9999 -9999 -9999 -9999 401 399 386 397 381 371 350 341 338 333 325 316 316 359 371 358 325 302 298 301 324 299 298 298 306 353 344 361 373 358 366 370 361 355 333 323 318 307 314 327 328 362 374 381 375 374 371 362 377 378 359 366 376 346 346 371 372 374 353 356 336 330 334 312 315 325 349 352 333 337 355 358 364 379 367 373 349 349 372 368 382 390 384 382 392 410 406 386 390 391 414 397 412 412 439 446 460 482 494 541 559 535 488 451 460 464 433 408 413 411 404 421 437 442 546 564 543 590 604 557 502 534 628 607 634 620 636 519 556 537 448 432 454 488 500 523 447 422 407 407 403 404 407 412 424 452 486 527 535 603 661 711 694 552 456 485 505 558 661 592 658 803 802 836 -9999 -9999 -9999 -9999 -9999 -9999 -9999 -9999 -9999 -9999 -9999 -9999 -9999 -9999 -9999 -9999 -9999 -9999 -9999 -9999 -9999
-9999 -9999 -9999 -9999 -9999 -9999 -9999 -9999 -9999 -9999 -9999 -9999 -9999 -9999 -9999 -9999 -9999 -9999 -9999 -9999 -9999 -9999 -9999 -9999 -9999 -9999 -9999 -9999 -9999 -9999 -9999 -9999 -9999 -9999 -9999 -9999 -9999 -9999 -9999 -9999 -9999 -9999 -9999 -9999 -9999 -9999 -9999 -9999 -9999 -9999 -9999 -9999 -9999 -9999 -9999 -9999 -9999 -9999 -9999 -9999 -9999 -9999 -9999 -9999 -9999 -9999 -9999 -9999 -9999 -9999 -9999 -9999 -9999 -9999 -9999 -9999 -9999 -9999 -9999 -9999 -9999 -9999 -9999 -9999 -9999 -9999 -9999 -9999 -9999 -9999 -9999 -9999 -9999 -9999 -9999 -9999 -9999 -9999 -9999 -9999 -9999 -9999 -9999 -9999 413 404 399 395 380 361 329 324 320 316 316 369 380 355 312 310 328 314 323 354 358 334 298 298 331 327 364 353 353 360 376 366 351 340 338 338 334 316 317 325 344 385 380 379 382 369 362 360 346 346 346 359 346 361 368 385 374 365 361 337 335 335 316 345 347 349 357 344 333 334 369 368 362 364 347 350 360 391 400 401 374 393 403 404 403 419 426 409 426 416 407 444 437 475 465 495 533 561 536 494 502 479 463 477 505 517 456 454 435 419 441 469 592 644 563 526 547 556 526 485 497 587 640 624 650 583 566 506 472 456 486 508 475 452 470 500 426 408 410 429 416 410 433 417 420 440 462 499 531 561 658 605 527 528 598 569 550 682 592 592 722 841 872 -9999 -9999 -9999 -9999 -9999 -9999 -9999 -9999 -9999 -9999 -9999 -9999 -9999 -9999 -9999 -9999 -9999 -9999 -9999 -9999 -9999
-9999 -9999 -9999 -9999 -9999 -9999 -9999 -9999 -9999 -9999 -9999 -9999 -9999 -9999 -9999 -9999 -9999 -9999 -9999 -9999 -9999 -9999 -9999 -9999 -9999 -9999 -9999 -9999 -9999 -9999 -9999 -9999 -9999 -9999 -9999 -9999 -9999 -9999 -9999 -9999 -9999 -9999 -9999 -9999 -9999 -9999 -9999 -9999 -9999 -9999 -9999 -9999 -9999 -9999 -9999 -9999 -9999 -9999 -9999 -9999 -9999 -9999 -9999 -9999 -9999 -9999 -9999 -9999 -9999 -9999 -9999 -9999 -9999 -9999 -9999 -9999 -9999 -9999 -9999 -9999 -9999 -9999 -9999 -9999 -9999 -9999 -9999 -9999 -9999 -9999 -9999 -9999 -9999 -9999 -9999 -9999 -9999 -9999 -9999 -9999 -9999 -9999 -9999 -9999 -9999 411 399 377 378 368 346 341 318 316 317 364 365 345 334 333 324 319 314 329 352 377 349 335 298 321 333 359 367 374 375 361 358 338 358 367 366 353 325 337 381 391 386 371 362 353 353 353 346 346 346 346 349 360 355 371 375 364 340 335 338 335 316 350 363 357 354 333 333 333 333 333 336 336 340 356 393 397 374 374 378 391 406 414 429 425 432 447 473 442 428 443 466 521 568 560 504 470 449 459 458 455 450 471 497 494 485 445 480 491 461 596 583 620 609 544 484 489 476 473 483 503 658 676 657 659 581 511 521 544 554 499 449 443 443 417 417 416 416 432 518 471 504 501 469 457 448 474 539 565 667 628 529 617 583 659 631 724 620 710 658 743 762 -9999 -9999 -9999 -9999 -9999 -9999 -9999 -9999 -9999 -9999 -9999 -9999 -9999 -9999 -9999 -9999 -9999 -9999 -9999 -9999 -9999
